-2.7260196e-02  -5.7118556e-02  -8.8175221e-02  -1.2033955e-01  -1.5360753e-01  -1.8831827e-01  -2.2452630e-01  -2.6515429e-01  -3.0803902e-01  -3.5008547e-01  -3.8844850e-01  -4.2644750e-01  -4.7250655e-01  -5.2788715e-01  -5.8470427e-01  -6.3528424e-01  -6.7969811e-01  -7.1655549e-01  -7.4156851e-01  -7.6992989e-01  -8.0040291e-01  -8.3462110e-01  -8.9283757e-01  -9.9285299e-01  -1.0838843e+00  -1.1588884e+00  -1.2173324e+00  -1.2741858e+00  -1.3549498e+00  -1.4256309e+00  -1.4800180e+00  -1.5056692e+00  -1.5299649e+00  -1.5793084e+00  -1.6323397e+00  -1.6643818e+00  -1.6953740e+00  -1.7309095e+00  -1.7306817e+00  -1.7272219e+00  -1.7542048e+00  -1.7964731e+00  -1.8574700e+00  -1.8815568e+00  -1.8595368e+00  -1.8390471e+00  -1.8366934e+00  -1.8557594e+00  -1.8647633e+00  -1.8516624e+00  -1.8469124e+00  -1.8332046e+00  -1.8050344e+00  -1.7757968e+00  -1.7630773e+00  -1.7745672e+00  -1.7697802e+00  -1.7503117e+00  -1.7343679e+00  -1.7301415e+00  -1.7307379e+00  -1.7277508e+00  -1.7240882e+00  -1.7276827e+00  -1.7246581e+00  -1.7115107e+00  -1.7127769e+00  -1.7167320e+00  -1.7193786e+00  -1.7307909e+00  -1.7449895e+00  -1.7499607e+00  -1.7489934e+00  -1.7558691e+00  -1.7615843e+00  -1.7692541e+00  -1.7852175e+00  -1.8080596e+00  -1.8240046e+00  -1.8355503e+00  -1.8530931e+00  -1.8723614e+00  -1.8880129e+00  -1.8991644e+00  -1.9155464e+00  -1.9374219e+00  -1.9657586e+00  -1.9765658e+00  -1.9912941e+00  -2.0056641e+00  -2.0339644e+00  -2.0655321e+00  -2.0829029e+00  -2.0882462e+00  -2.1000893e+00  -2.1116580e+00  -2.1335569e+00  -2.1512044e+00  -2.1540949e+00  -2.1575507e+00  -2.1735654e+00  -2.1625256e+00  -2.1464206e+00  -2.1403900e+00  -2.1399293e+00  -2.1521742e+00  -2.1532066e+00  -2.1631908e+00  -2.1784491e+00  -2.1985259e+00  -2.2105937e+00  -2.2133903e+00  -2.2234556e+00  -2.2405627e+00  -2.2649800e+00  -2.2921270e+00  -2.3210527e+00  -2.3676273e+00  -2.3957904e+00  -2.4157695e+00  -2.4468588e+00  -2.4798926e+00  -2.5193440e+00  -2.5572868e+00  -2.5938671e+00  -2.6348955e+00  -2.6757800e+00  -2.6906814e+00  -2.7475522e+00  -2.7913337e+00  -2.8204565e+00  -2.8457239e+00  -2.8730847e+00  -2.8975610e+00  -2.9083076e+00  -2.9354367e+00  -2.9951609e+00  -3.0366577e+00  -3.0551722e+00  -3.0571294e+00  -3.0523248e+00  -3.0197066e+00  -2.9536629e+00  -2.8349857e+00  -2.7008881e+00  -2.5599877e+00  -2.4571906e+00  -2.4172416e+00  -2.4223898e+00  -2.4291614e+00  -2.4359411e+00  -2.4427366e+00  -2.4496105e+00  -2.4565616e+00  -2.4636407e+00  -2.4707020e+00  -2.4777604e+00  -2.4848148e+00  -2.4918802e+00  -2.4989652e+00  -2.5060811e+00  -2.5132359e+00  -2.5204393e+00  -2.5275992e+00  -2.5347365e+00  -2.5417616e+00  -2.5487996e+00  -2.5558493e+00  -2.5629262e+00  -2.5701378e+00  -2.5774249e+00  -2.5847407e+00  -2.5920279e+00  -2.5993063e+00  -2.6065836e+00  -2.6138738e+00  -2.6211854e+00  -2.6285344e+00  -2.6359220e+00  -2.6433080e+00  -2.6506243e+00  -2.6578442e+00  -2.6650568e+00  -2.6722795e+00  -2.6795154e+00  -2.6868950e+00
-2.1897583e-02  -5.0328979e-02  -8.1526475e-02  -1.1518212e-01  -1.5102989e-01  -1.8492046e-01  -2.1801788e-01  -2.5831702e-01  -3.0149187e-01  -3.4226562e-01  -3.8105076e-01  -4.2005744e-01  -4.6449289e-01  -5.1574848e-01  -5.7123116e-01  -6.2540150e-01  -6.6759858e-01  -7.1158118e-01  -7.4758659e-01  -7.7279109e-01  -8.0461615e-01  -8.5719201e-01  -8.9920659e-01  -9.3787950e-01  -1.0160992e+00  -1.1082689e+00  -1.2033083e+00  -1.2954737e+00  -1.3786114e+00  -1.4569927e+00  -1.5326097e+00  -1.5962322e+00  -1.6011171e+00  -1.6012157e+00  -1.6000332e+00  -1.6187253e+00  -1.6639448e+00  -1.7227142e+00  -1.7619711e+00  -1.7507656e+00  -1.7436084e+00  -1.7689339e+00  -1.8032512e+00  -1.8265016e+00  -1.8372833e+00  -1.8405343e+00  -1.8662306e+00  -1.8747248e+00  -1.8544882e+00  -1.8229912e+00  -1.8439421e+00  -1.8599436e+00  -1.8465200e+00  -1.8151923e+00  -1.7873332e+00  -1.7767451e+00  -1.7645586e+00  -1.7504461e+00  -1.7401816e+00  -1.7346660e+00  -1.7297789e+00  -1.7188262e+00  -1.7101836e+00  -1.7100372e+00  -1.7145624e+00  -1.7237539e+00  -1.7348232e+00  -1.7507757e+00  -1.7479436e+00  -1.7412844e+00  -1.7376132e+00  -1.7394097e+00  -1.7483806e+00  -1.7504248e+00  -1.7582522e+00  -1.7766791e+00  -1.7935344e+00  -1.8059869e+00  -1.8236717e+00  -1.8376607e+00  -1.8486478e+00  -1.8600274e+00  -1.8722296e+00  -1.8906410e+00  -1.9172564e+00  -1.9399000e+00  -1.9532044e+00  -1.9748485e+00  -1.9959840e+00  -2.0126207e+00  -2.0443889e+00  -2.0664604e+00  -2.0860387e+00  -2.0933751e+00  -2.1024967e+00  -2.1098954e+00  -2.1224302e+00  -2.1400935e+00  -2.1515780e+00  -2.1562467e+00  -2.1636095e+00  -2.1611166e+00  -2.1522866e+00  -2.1506361e+00  -2.1473098e+00  -2.1452469e+00  -2.1401522e+00  -2.1414139e+00  -2.1608446e+00  -2.1929646e+00  -2.2139899e+00  -2.2328087e+00  -2.2528618e+00  -2.2665466e+00  -2.2744611e+00  -2.2872583e+00  -2.3144828e+00  -2.3607748e+00  -2.3948747e+00  -2.4171269e+00  -2.4498429e+00  -2.4843930e+00  -2.5275017e+00  -2.5577800e+00  -2.5843876e+00  -2.6191897e+00  -2.6455345e+00  -2.6699805e+00  -2.7070031e+00  -2.7586061e+00  -2.7845877e+00  -2.8138450e+00  -2.8611200e+00  -2.8895322e+00  -2.9097080e+00  -2.9317254e+00  -2.9614176e+00  -2.9765450e+00  -3.0306998e+00  -3.0570353e+00  -3.0804607e+00  -3.0891882e+00  -3.0307897e+00  -2.9115598e+00  -2.7754544e+00  -2.6408518e+00  -2.5066978e+00  -2.4302542e+00  -2.4222881e+00  -2.4290916e+00  -2.4359750e+00  -2.4428312e+00  -2.4496384e+00  -2.4564590e+00  -2.4633038e+00  -2.4702122e+00  -2.4772712e+00  -2.4843704e+00  -2.4914805e+00  -2.4985780e+00  -2.5056688e+00  -2.5127731e+00  -2.5199066e+00  -2.5270708e+00  -2.5342703e+00  -2.5415098e+00  -2.5487185e+00  -2.5558126e+00  -2.5628773e+00  -2.5699425e+00  -2.5770180e+00  -2.5841179e+00  -2.5914120e+00  -2.5987193e+00  -2.6060483e+00  -2.6133595e+00  -2.6206596e+00  -2.6279518e+00  -2.6352753e+00  -2.6426271e+00  -2.6500091e+00  -2.6574180e+00  -2.6648708e+00  -2.6721247e+00  -2.6793781e+00  -2.6866171e+00
-2.4039004e-02  -5.1783279e-02  -8.1890314e-02  -1.1521567e-01  -1.4827438e-01  -1.8520626e-01  -2.2120721e-01  -2.5786339e-01  -2.9758005e-01  -3.3888443e-01  -3.7657104e-01  -4.1658203e-01  -4.6335578e-01  -5.1153842e-01  -5.6673461e-01  -6.1636882e-01  -6.6553536e-01  -7.0680953e-01  -7.4477136e-01  -7.8084042e-01  -8.0400015e-01  -8.4065123e-01  -8.9277037e-01  -9.5052458e-01  -1.0148325e+00  -1.0847414e+00  -1.1759857e+00  -1.3012776e+00  -1.3946302e+00  -1.4428775e+00  -1.4961611e+00  -1.5714121e+00  -1.6049589e+00  -1.6356230e+00  -1.6519619e+00  -1.6668748e+00  -1.6792557e+00  -1.6926900e+00  -1.7387984e+00  -1.7797875e+00  -1.8005120e+00  -1.7940963e+00  -1.7774477e+00  -1.7638827e+00  -1.7797895e+00  -1.8215234e+00  -1.8515878e+00  -1.8475283e+00  -1.8257607e+00  -1.8052000e+00  -1.8374750e+00  -1.8546579e+00  -1.8450906e+00  -1.8209075e+00  -1.7869892e+00  -1.7517141e+00  -1.7313232e+00  -1.7353931e+00  -1.7484607e+00  -1.7428161e+00  -1.7319090e+00  -1.7228644e+00  -1.7182429e+00  -1.7170609e+00  -1.7213069e+00  -1.7292030e+00  -1.7286296e+00  -1.7295936e+00  -1.7321393e+00  -1.7346136e+00  -1.7385366e+00  -1.7464134e+00  -1.7591574e+00  -1.7555698e+00  -1.7574469e+00  -1.7638942e+00  -1.7768920e+00  -1.7935675e+00  -1.8036692e+00  -1.8187747e+00  -1.8297461e+00  -1.8491528e+00  -1.8729394e+00  -1.8941727e+00  -1.9113529e+00  -1.9240672e+00  -1.9467194e+00  -1.9638704e+00  -1.9868385e+00  -2.0124272e+00  -2.0336355e+00  -2.0455952e+00  -2.0667993e+00  -2.0896274e+00  -2.1073743e+00  -2.1196889e+00  -2.1234960e+00  -2.1268586e+00  -2.1408697e+00  -2.1537599e+00  -2.1618364e+00  -2.1631513e+00  -2.1550664e+00  -2.1443560e+00  -2.1479932e+00  -2.1497254e+00  -2.1437667e+00  -2.1463117e+00  -2.1625642e+00  -2.1827663e+00  -2.1995087e+00  -2.2165039e+00  -2.2340254e+00  -2.2549822e+00  -2.2858677e+00  -2.3128630e+00  -2.3278731e+00  -2.3544522e+00  -2.3859232e+00  -2.4235388e+00  -2.4585655e+00  -2.4954255e+00  -2.5383835e+00  -2.5694452e+00  -2.5922261e+00  -2.6143225e+00  -2.6461543e+00  -2.6813939e+00  -2.7185385e+00  -2.7568876e+00  -2.7981705e+00  -2.8328237e+00  -2.8390916e+00  -2.8517365e+00  -2.8928205e+00  -2.9370512e+00  -2.9671528e+00  -2.9772552e+00  -3.0202275e+00  -3.0763675e+00  -3.1137731e+00  -3.1156574e+00  -3.0874116e+00  -2.9694832e+00  -2.8229016e+00  -2.6872493e+00  -2.5638368e+00  -2.4572670e+00  -2.4231857e+00  -2.4285596e+00  -2.4355087e+00  -2.4424956e+00  -2.4494778e+00  -2.4564401e+00  -2.4632797e+00  -2.4701344e+00  -2.4770009e+00  -2.4839081e+00  -2.4908602e+00  -2.4980012e+00  -2.5051495e+00  -2.5122889e+00  -2.5194232e+00  -2.5265602e+00  -2.5336992e+00  -2.5408729e+00  -2.5480854e+00  -2.5553304e+00  -2.5625726e+00  -2.5698285e+00  -2.5769010e+00  -2.5839883e+00  -2.5910737e+00  -2.5981741e+00  -2.6053548e+00  -2.6126535e+00  -2.6200181e+00  -2.6273600e+00  -2.6346917e+00  -2.6420186e+00  -2.6493496e+00  -2.6567007e+00  -2.6640900e+00  -2.6715173e+00  -2.6789631e+00  -2.6863864e+00
-2.9076906e-02  -5.9463032e-02  -9.0550761e-02  -1.2310051e-01  -1.5369428e-01  -1.8819206e-01  -2.2637726e-01  -2.6803428e-01  -3.1111971e-01  -3.5262702e-01  -3.8714851e-01  -4.2119332e-01  -4.6268650e-01  -5.1154010e-01  -5.6448386e-01  -6.1956023e-01  -6.7022533e-01  -7.0566554e-01  -7.4328960e-01  -7.7228150e-01  -7.9531702e-01  -8.3391446e-01  -8.8406754e-01  -9.3573533e-01  -1.0023079e+00  -1.0816605e+00  -1.1533174e+00  -1.2512882e+00  -1.3789682e+00  -1.4716356e+00  -1.5045819e+00  -1.5521757e+00  -1.5946892e+00  -1.6358713e+00  -1.6719789e+00  -1.7063011e+00  -1.7246481e+00  -1.7352549e+00  -1.7295408e+00  -1.7428109e+00  -1.7716918e+00  -1.7982864e+00  -1.7858551e+00  -1.7703295e+00  -1.7551479e+00  -1.7830636e+00  -1.8069413e+00  -1.7882888e+00  -1.7960261e+00  -1.7996558e+00  -1.7994799e+00  -1.8147081e+00  -1.8329845e+00  -1.8198852e+00  -1.8080865e+00  -1.7841785e+00  -1.7564114e+00  -1.7479394e+00  -1.7592752e+00  -1.7550400e+00  -1.7407063e+00  -1.7243413e+00  -1.7142175e+00  -1.7093554e+00  -1.7151005e+00  -1.7157138e+00  -1.7144282e+00  -1.7132588e+00  -1.7193152e+00  -1.7326798e+00  -1.7410104e+00  -1.7463951e+00  -1.7408507e+00  -1.7433846e+00  -1.7516961e+00  -1.7438263e+00  -1.7407629e+00  -1.7527694e+00  -1.7815179e+00  -1.8134260e+00  -1.8459112e+00  -1.8579294e+00  -1.8742965e+00  -1.8853651e+00  -1.8998850e+00  -1.9170231e+00  -1.9363199e+00  -1.9553148e+00  -1.9676904e+00  -1.9926386e+00  -2.0168154e+00  -2.0301800e+00  -2.0464672e+00  -2.0672689e+00  -2.0908010e+00  -2.1071072e+00  -2.1071235e+00  -2.1106558e+00  -2.1248721e+00  -2.1412625e+00  -2.1515010e+00  -2.1564263e+00  -2.1562263e+00  -2.1425739e+00  -2.1428186e+00  -2.1490154e+00  -2.1507877e+00  -2.1590970e+00  -2.1716509e+00  -2.1872062e+00  -2.2065390e+00  -2.2176125e+00  -2.2337535e+00  -2.2442824e+00  -2.2617218e+00  -2.2951432e+00  -2.3310614e+00  -2.3596429e+00  -2.3957009e+00  -2.4348994e+00  -2.4726461e+00  -2.5114832e+00  -2.5346844e+00  -2.5620587e+00  -2.5996982e+00  -2.6411692e+00  -2.6868550e+00  -2.7116397e+00  -2.7462222e+00  -2.7730206e+00  -2.8044950e+00  -2.8405434e+00  -2.8698590e+00  -2.9117756e+00  -2.9475462e+00  -2.9573129e+00  -2.9555056e+00  -2.9595340e+00  -2.9702296e+00  -3.0103492e+00  -3.0654896e+00  -3.0975635e+00  -3.0857380e+00  -2.9794290e+00  -2.8340777e+00  -2.6903013e+00  -2.5591713e+00  -2.4423403e+00  -2.4234083e+00  -2.4280666e+00  -2.4349759e+00  -2.4419022e+00  -2.4488608e+00  -2.4558608e+00  -2.4629091e+00  -2.4699129e+00  -2.4768901e+00  -2.4837776e+00  -2.4906770e+00  -2.4975865e+00  -2.5045421e+00  -2.5116129e+00  -2.5187776e+00  -2.5259726e+00  -2.5331481e+00  -2.5403130e+00  -2.5474790e+00  -2.5546627e+00  -2.5618742e+00  -2.5691122e+00  -2.5763926e+00  -2.5836776e+00  -2.5908716e+00  -2.5979917e+00  -2.6050960e+00  -2.6122121e+00  -2.6193379e+00  -2.6266130e+00  -2.6339374e+00  -2.6413322e+00  -2.6487089e+00  -2.6560683e+00  -2.6634220e+00  -2.6707909e+00  -2.6781786e+00  -2.6855968e+00
-2.7965250e-02  -5.8732558e-02  -8.9675861e-02  -1.2069435e-01  -1.5386521e-01  -1.8883427e-01  -2.2426991e-01  -2.6731897e-01  -3.1209763e-01  -3.4705207e-01  -3.8325809e-01  -4.2111852e-01  -4.6332631e-01  -5.0668663e-01  -5.5646499e-01  -6.1080182e-01  -6.5622164e-01  -6.9673582e-01  -7.3890625e-01  -7.6680450e-01  -7.8490189e-01  -8.2175601e-01  -8.7581527e-01  -9.4421377e-01  -1.0164566e+00  -1.0922437e+00  -1.1669202e+00  -1.2639755e+00  -1.3850595e+00  -1.4974843e+00  -1.5373210e+00  -1.5703129e+00  -1.6057557e+00  -1.6438816e+00  -1.6900561e+00  -1.7165607e+00  -1.7301650e+00  -1.7303289e+00  -1.7395025e+00  -1.7569930e+00  -1.7634795e+00  -1.7770276e+00  -1.7996980e+00  -1.7937044e+00  -1.7712570e+00  -1.7684074e+00  -1.7732941e+00  -1.7646764e+00  -1.7951031e+00  -1.8097121e+00  -1.8046674e+00  -1.8017939e+00  -1.8187459e+00  -1.7993292e+00  -1.7757038e+00  -1.7530564e+00  -1.7451311e+00  -1.7452255e+00  -1.7397897e+00  -1.7289865e+00  -1.7151913e+00  -1.7081665e+00  -1.7118403e+00  -1.7141280e+00  -1.7186923e+00  -1.7127540e+00  -1.7094806e+00  -1.7077311e+00  -1.7177280e+00  -1.7347775e+00  -1.7337658e+00  -1.7373873e+00  -1.7447626e+00  -1.7486519e+00  -1.7471575e+00  -1.7436798e+00  -1.7515037e+00  -1.7715443e+00  -1.7952872e+00  -1.8116140e+00  -1.8348809e+00  -1.8554814e+00  -1.8664045e+00  -1.8790544e+00  -1.8979649e+00  -1.9152815e+00  -1.9262198e+00  -1.9367679e+00  -1.9576725e+00  -1.9786795e+00  -1.9930958e+00  -2.0112251e+00  -2.0287349e+00  -2.0441901e+00  -2.0665554e+00  -2.0838910e+00  -2.0984587e+00  -2.1205256e+00  -2.1309120e+00  -2.1350487e+00  -2.1424889e+00  -2.1441410e+00  -2.1426612e+00  -2.1447131e+00  -2.1476020e+00  -2.1492826e+00  -2.1450738e+00  -2.1490143e+00  -2.1786087e+00  -2.1932992e+00  -2.1972600e+00  -2.2071899e+00  -2.2393656e+00  -2.2463347e+00  -2.2729779e+00  -2.3166254e+00  -2.3569946e+00  -2.3885249e+00  -2.4207544e+00  -2.4515387e+00  -2.4802232e+00  -2.5042972e+00  -2.5260404e+00  -2.5580753e+00  -2.6014033e+00  -2.6419909e+00  -2.6759552e+00  -2.7055568e+00  -2.7334281e+00  -2.7540816e+00  -2.7884571e+00  -2.8531279e+00  -2.8963013e+00  -2.9159951e+00  -2.9306713e+00  -2.9401922e+00  -2.9646732e+00  -2.9792795e+00  -2.9909143e+00  -3.0060447e+00  -3.0202599e+00  -3.0684172e+00  -3.0611728e+00  -2.9558627e+00  -2.8134703e+00  -2.6796259e+00  -2.5499538e+00  -2.4432708e+00  -2.4204529e+00  -2.4274178e+00  -2.4343761e+00  -2.4413270e+00  -2.4482689e+00  -2.4552205e+00  -2.4622058e+00  -2.4692244e+00  -2.4762785e+00  -2.4833675e+00  -2.4904417e+00  -2.4974004e+00  -2.5043398e+00  -2.5112786e+00  -2.5182409e+00  -2.5252245e+00  -2.5324053e+00  -2.5396089e+00  -2.5468283e+00  -2.5540357e+00  -2.5612304e+00  -2.5684221e+00  -2.5756412e+00  -2.5828843e+00  -2.5901606e+00  -2.5974643e+00  -2.6048161e+00  -2.6119498e+00  -2.6190986e+00  -2.6262348e+00  -2.6333820e+00  -2.6405536e+00  -2.6478828e+00  -2.6552784e+00  -2.6626941e+00  -2.6700969e+00  -2.6774865e+00  -2.6848619e+00
-2.6884013e-02  -6.2597074e-02  -9.5304333e-02  -1.2599398e-01  -1.5746437e-01  -1.8994711e-01  -2.2375759e-01  -2.6423842e-01  -3.0607537e-01  -3.4536645e-01  -3.8319412e-01  -4.1909037e-01  -4.5551903e-01  -5.0104536e-01  -5.5194440e-01  -6.0331928e-01  -6.5188534e-01  -6.9661381e-01  -7.3622970e-01  -7.7017881e-01  -7.9155097e-01  -8.2025485e-01  -8.7299517e-01  -9.4917997e-01  -1.0463445e+00  -1.1255341e+00  -1.1961449e+00  -1.2842046e+00  -1.3920216e+00  -1.4784078e+00  -1.5254629e+00  -1.5770768e+00  -1.6487595e+00  -1.7050596e+00  -1.7121103e+00  -1.7022767e+00  -1.7140773e+00  -1.7434456e+00  -1.7744287e+00  -1.7770465e+00  -1.7495913e+00  -1.7931639e+00  -1.8048449e+00  -1.8073816e+00  -1.7975891e+00  -1.7925547e+00  -1.7748017e+00  -1.7632345e+00  -1.7776657e+00  -1.7925214e+00  -1.8041822e+00  -1.8063995e+00  -1.7982193e+00  -1.7863149e+00  -1.7572788e+00  -1.7387162e+00  -1.7249795e+00  -1.7239381e+00  -1.7233866e+00  -1.7185858e+00  -1.7170871e+00  -1.7183038e+00  -1.7149805e+00  -1.7101365e+00  -1.7056057e+00  -1.7085174e+00  -1.7089166e+00  -1.7028276e+00  -1.7054543e+00  -1.7218218e+00  -1.7251902e+00  -1.7258836e+00  -1.7313433e+00  -1.7367583e+00  -1.7351679e+00  -1.7423785e+00  -1.7613646e+00  -1.7825474e+00  -1.8059610e+00  -1.8162310e+00  -1.8304263e+00  -1.8509888e+00  -1.8615374e+00  -1.8730187e+00  -1.8955163e+00  -1.9169228e+00  -1.9311593e+00  -1.9488635e+00  -1.9696497e+00  -1.9858944e+00  -1.9954264e+00  -2.0074731e+00  -2.0192856e+00  -2.0443249e+00  -2.0716133e+00  -2.0782420e+00  -2.0894301e+00  -2.1015659e+00  -2.1136958e+00  -2.1308134e+00  -2.1371047e+00  -2.1385366e+00  -2.1418835e+00  -2.1384868e+00  -2.1412837e+00  -2.1483375e+00  -2.1534089e+00  -2.1621446e+00  -2.1878815e+00  -2.1989307e+00  -2.2082875e+00  -2.2368447e+00  -2.2566444e+00  -2.2557799e+00  -2.2721496e+00  -2.3064292e+00  -2.3405538e+00  -2.3637764e+00  -2.3971537e+00  -2.4349841e+00  -2.4769618e+00  -2.5140231e+00  -2.5425309e+00  -2.5759541e+00  -2.6179323e+00  -2.6669733e+00  -2.7016039e+00  -2.7243265e+00  -2.7501646e+00  -2.7799689e+00  -2.8113297e+00  -2.8516693e+00  -2.8648012e+00  -2.8887522e+00  -2.9195703e+00  -2.9393196e+00  -2.9724651e+00  -3.0026965e+00  -3.0477882e+00  -3.0585143e+00  -3.0567623e+00  -3.0606036e+00  -3.0740332e+00  -3.0166009e+00  -2.9079023e+00  -2.7927712e+00  -2.6664479e+00  -2.5403653e+00  -2.4586650e+00  -2.4266910e+00  -2.4334986e+00  -2.4405262e+00  -2.4475401e+00  -2.4545392e+00  -2.4615332e+00  -2.4685303e+00  -2.4755354e+00  -2.4825763e+00  -2.4896523e+00  -2.4967705e+00  -2.5038903e+00  -2.5110118e+00  -2.5179847e+00  -2.5249565e+00  -2.5319388e+00  -2.5389417e+00  -2.5460126e+00  -2.5532127e+00  -2.5604706e+00  -2.5677110e+00  -2.5749380e+00  -2.5821611e+00  -2.5893856e+00  -2.5966291e+00  -2.6039127e+00  -2.6112324e+00  -2.6185795e+00  -2.6258876e+00  -2.6330883e+00  -2.6402474e+00  -2.6474194e+00  -2.6546015e+00  -2.6618691e+00  -2.6691963e+00  -2.6766585e+00  -2.6840954e+00
-2.8904327e-02  -6.3165245e-02  -9.4088745e-02  -1.2674001e-01  -1.5891863e-01  -1.9148008e-01  -2.2531505e-01  -2.6452027e-01  -3.0742637e-01  -3.4636260e-01  -3.8354197e-01  -4.1866748e-01  -4.5678119e-01  -5.0156401e-01  -5.5203340e-01  -6.0502399e-01  -6.5680825e-01  -7.0064191e-01  -7.3814622e-01  -7.7325004e-01  -8.0243498e-01  -8.2676148e-01  -8.6135550e-01  -9.2948781e-01  -1.0390582e+00  -1.1239590e+00  -1.1827641e+00  -1.2519319e+00  -1.3539253e+00  -1.4637821e+00  -1.5344757e+00  -1.5730355e+00  -1.6446278e+00  -1.7231376e+00  -1.7424841e+00  -1.7170136e+00  -1.7251865e+00  -1.7395725e+00  -1.7506128e+00  -1.7663864e+00  -1.7734770e+00  -1.7986666e+00  -1.8171379e+00  -1.8304518e+00  -1.8337781e+00  -1.8337995e+00  -1.8142394e+00  -1.7993393e+00  -1.8058372e+00  -1.8094212e+00  -1.8015400e+00  -1.7974580e+00  -1.7974962e+00  -1.7937165e+00  -1.7821461e+00  -1.7717586e+00  -1.7560637e+00  -1.7415529e+00  -1.7274900e+00  -1.7179635e+00  -1.7153427e+00  -1.7131929e+00  -1.7118530e+00  -1.7102783e+00  -1.7031063e+00  -1.6956314e+00  -1.7003708e+00  -1.7133819e+00  -1.7167657e+00  -1.7144536e+00  -1.7205240e+00  -1.7263370e+00  -1.7359502e+00  -1.7404669e+00  -1.7457343e+00  -1.7563354e+00  -1.7666642e+00  -1.7738119e+00  -1.7966756e+00  -1.8122139e+00  -1.8263276e+00  -1.8439842e+00  -1.8611785e+00  -1.8746665e+00  -1.8970230e+00  -1.9133678e+00  -1.9215400e+00  -1.9369628e+00  -1.9570800e+00  -1.9805285e+00  -2.0035027e+00  -2.0164974e+00  -2.0314571e+00  -2.0535343e+00  -2.0707751e+00  -2.0777887e+00  -2.0890691e+00  -2.0994395e+00  -2.1096228e+00  -2.1195274e+00  -2.1334711e+00  -2.1317951e+00  -2.1320256e+00  -2.1369119e+00  -2.1456231e+00  -2.1552806e+00  -2.1597314e+00  -2.1706237e+00  -2.1762999e+00  -2.1838889e+00  -2.2002835e+00  -2.2131546e+00  -2.2402668e+00  -2.2729731e+00  -2.3045236e+00  -2.3229558e+00  -2.3410323e+00  -2.3723061e+00  -2.4082289e+00  -2.4404244e+00  -2.4756124e+00  -2.5132872e+00  -2.5457670e+00  -2.5735252e+00  -2.6139526e+00  -2.6518672e+00  -2.6843495e+00  -2.7148527e+00  -2.7404275e+00  -2.7759329e+00  -2.8268245e+00  -2.8567353e+00  -2.8694680e+00  -2.9095023e+00  -2.9388737e+00  -2.9597508e+00  -2.9683732e+00  -2.9950852e+00  -3.0381534e+00  -3.0556338e+00  -3.0535782e+00  -3.0530841e+00  -2.9994027e+00  -2.9077015e+00  -2.8342320e+00  -2.7678331e+00  -2.6892128e+00  -2.6024637e+00  -2.5101536e+00  -2.4423054e+00  -2.4334712e+00  -2.4398245e+00  -2.4466494e+00  -2.4536071e+00  -2.4606582e+00  -2.4677238e+00  -2.4747750e+00  -2.4818143e+00  -2.4888608e+00  -2.4959271e+00  -2.5030188e+00  -2.5101459e+00  -2.5173189e+00  -2.5244900e+00  -2.5315810e+00  -2.5386036e+00  -2.5456081e+00  -2.5526210e+00  -2.5596486e+00  -2.5668214e+00  -2.5740450e+00  -2.5813351e+00  -2.5886052e+00  -2.5958543e+00  -2.6030996e+00  -2.6103648e+00  -2.6176520e+00  -2.6249716e+00  -2.6323303e+00  -2.6397411e+00  -2.6470024e+00  -2.6542435e+00  -2.6614413e+00  -2.6686406e+00  -2.6758503e+00  -2.6831689e+00
-2.3984125e-02  -5.7793808e-02  -9.1191905e-02  -1.2145093e-01  -1.5580548e-01  -1.9261214e-01  -2.2543128e-01  -2.6181744e-01  -2.9790653e-01  -3.3798007e-01  -3.8096244e-01  -4.1953699e-01  -4.5390623e-01  -4.9800710e-01  -5.4846090e-01  -6.0008456e-01  -6.4781240e-01  -6.9111956e-01  -7.2900797e-01  -7.6596570e-01  -7.9531409e-01  -8.1910307e-01  -8.5206415e-01  -9.1336716e-01  -1.0101057e+00  -1.1012865e+00  -1.1583550e+00  -1.2087769e+00  -1.3052142e+00  -1.4356690e+00  -1.5116736e+00  -1.5717432e+00  -1.6154338e+00  -1.6408857e+00  -1.7004534e+00  -1.7454261e+00  -1.7767871e+00  -1.7824698e+00  -1.7752354e+00  -1.7857905e+00  -1.8077304e+00  -1.8212965e+00  -1.8297910e+00  -1.8467480e+00  -1.8656865e+00  -1.8738701e+00  -1.8518784e+00  -1.8256720e+00  -1.8221608e+00  -1.8283069e+00  -1.8132186e+00  -1.8072118e+00  -1.8115070e+00  -1.8045191e+00  -1.7835966e+00  -1.7650311e+00  -1.7572261e+00  -1.7495185e+00  -1.7383697e+00  -1.7254590e+00  -1.7141451e+00  -1.7170061e+00  -1.7104413e+00  -1.7088233e+00  -1.7010013e+00  -1.6983036e+00  -1.7002260e+00  -1.7021876e+00  -1.7035652e+00  -1.7132025e+00  -1.7210728e+00  -1.7245340e+00  -1.7263028e+00  -1.7432418e+00  -1.7485859e+00  -1.7581129e+00  -1.7757479e+00  -1.7838936e+00  -1.7954055e+00  -1.8102100e+00  -1.8190610e+00  -1.8215341e+00  -1.8393670e+00  -1.8634361e+00  -1.8836122e+00  -1.9019252e+00  -1.9183179e+00  -1.9361303e+00  -1.9513678e+00  -1.9622492e+00  -1.9805263e+00  -1.9985050e+00  -2.0165488e+00  -2.0434631e+00  -2.0712316e+00  -2.0864774e+00  -2.1008046e+00  -2.1135426e+00  -2.1130522e+00  -2.1164085e+00  -2.1189503e+00  -2.1251682e+00  -2.1255665e+00  -2.1271107e+00  -2.1367468e+00  -2.1524899e+00  -2.1600710e+00  -2.1731390e+00  -2.1839378e+00  -2.1916966e+00  -2.2049801e+00  -2.2211783e+00  -2.2407527e+00  -2.2693090e+00  -2.2965156e+00  -2.3167648e+00  -2.3284434e+00  -2.3719034e+00  -2.4174541e+00  -2.4589771e+00  -2.5013601e+00  -2.5159984e+00  -2.5408871e+00  -2.5703016e+00  -2.6055900e+00  -2.6457735e+00  -2.6979248e+00  -2.7473733e+00  -2.7863410e+00  -2.8122757e+00  -2.8386848e+00  -2.8598184e+00  -2.8874941e+00  -2.9133958e+00  -2.9411902e+00  -2.9461934e+00  -2.9584657e+00  -2.9844847e+00  -3.0093233e+00  -3.0316223e+00  -3.0620232e+00  -3.0415458e+00  -2.9363247e+00  -2.8076409e+00  -2.6858924e+00  -2.5739682e+00  -2.4763869e+00  -2.4350795e+00  -2.4184769e+00  -2.4254222e+00  -2.4324061e+00  -2.4392799e+00  -2.4461253e+00  -2.4529776e+00  -2.4598372e+00  -2.4666874e+00  -2.4737639e+00  -2.4808579e+00  -2.4879806e+00  -2.4950802e+00  -2.5021658e+00  -2.5092475e+00  -2.5163650e+00  -2.5235177e+00  -2.5307013e+00  -2.5378960e+00  -2.5451065e+00  -2.5521685e+00  -2.5592233e+00  -2.5662639e+00  -2.5733013e+00  -2.5803725e+00  -2.5875876e+00  -2.5948836e+00  -2.6022064e+00  -2.6095069e+00  -2.6167867e+00  -2.6240624e+00  -2.6313653e+00  -2.6387061e+00  -2.6460767e+00  -2.6534799e+00  -2.6609007e+00  -2.6681905e+00  -2.6754312e+00  -2.6826594e+00
-2.5411077e-02  -5.9354478e-02  -9.3371177e-02  -1.2317033e-01  -1.5585392e-01  -1.9045958e-01  -2.2428136e-01  -2.6165447e-01  -3.0409151e-01  -3.4301252e-01  -3.7784059e-01  -4.1589034e-01  -4.5049606e-01  -4.9050295e-01  -5.3762330e-01  -5.8964386e-01  -6.4010939e-01  -6.8968352e-01  -7.3631413e-01  -7.7377053e-01  -8.0700085e-01  -8.2831341e-01  -8.5441277e-01  -9.0491510e-01  -9.8915103e-01  -1.0840481e+00  -1.1605934e+00  -1.2046519e+00  -1.2757916e+00  -1.3626127e+00  -1.4571280e+00  -1.5556627e+00  -1.6352434e+00  -1.6570360e+00  -1.6765363e+00  -1.7122347e+00  -1.7586990e+00  -1.7924793e+00  -1.8076237e+00  -1.8250345e+00  -1.8346375e+00  -1.8408220e+00  -1.8514861e+00  -1.8622023e+00  -1.8623157e+00  -1.8636096e+00  -1.8726102e+00  -1.8760268e+00  -1.8631088e+00  -1.8539266e+00  -1.8384044e+00  -1.8287607e+00  -1.8240616e+00  -1.8174497e+00  -1.7987345e+00  -1.7739885e+00  -1.7637354e+00  -1.7511539e+00  -1.7341357e+00  -1.7096747e+00  -1.6822917e+00  -1.6902934e+00  -1.6953963e+00  -1.6938038e+00  -1.6911586e+00  -1.6937478e+00  -1.7135299e+00  -1.7085017e+00  -1.6949103e+00  -1.6989126e+00  -1.7046502e+00  -1.7115759e+00  -1.7108691e+00  -1.7269635e+00  -1.7508028e+00  -1.7658533e+00  -1.7711744e+00  -1.7713387e+00  -1.7812754e+00  -1.7981734e+00  -1.8177931e+00  -1.8311267e+00  -1.8489148e+00  -1.8681103e+00  -1.8803818e+00  -1.8960168e+00  -1.9142770e+00  -1.9324646e+00  -1.9498020e+00  -1.9589573e+00  -1.9717626e+00  -1.9917501e+00  -2.0169408e+00  -2.0354999e+00  -2.0546905e+00  -2.0699845e+00  -2.0825194e+00  -2.0952226e+00  -2.1003714e+00  -2.0922685e+00  -2.0967454e+00  -2.1089896e+00  -2.1214865e+00  -2.1332958e+00  -2.1364625e+00  -2.1402905e+00  -2.1524752e+00  -2.1643827e+00  -2.1760688e+00  -2.1883043e+00  -2.2086795e+00  -2.2277797e+00  -2.2426677e+00  -2.2716916e+00  -2.3041062e+00  -2.3186409e+00  -2.3434503e+00  -2.3940846e+00  -2.4249738e+00  -2.4464364e+00  -2.4796352e+00  -2.5320262e+00  -2.5529702e+00  -2.5685676e+00  -2.6028517e+00  -2.6532115e+00  -2.7152163e+00  -2.7335894e+00  -2.7607439e+00  -2.8099885e+00  -2.8353665e+00  -2.8327307e+00  -2.8674911e+00  -2.8940192e+00  -2.9154245e+00  -2.9451941e+00  -2.9921281e+00  -3.0040052e+00  -3.0050385e+00  -3.0123752e+00  -3.0306148e+00  -3.0197964e+00  -2.9358828e+00  -2.8086083e+00  -2.6744182e+00  -2.5387904e+00  -2.4364495e+00  -2.4102928e+00  -2.4172566e+00  -2.4242296e+00  -2.4312410e+00  -2.4383181e+00  -2.4453883e+00  -2.4524494e+00  -2.4593233e+00  -2.4661905e+00  -2.4730783e+00  -2.4799994e+00  -2.4869878e+00  -2.4940665e+00  -2.5011937e+00  -2.5083439e+00  -2.5155099e+00  -2.5226545e+00  -2.5297801e+00  -2.5369157e+00  -2.5440805e+00  -2.5513139e+00  -2.5585639e+00  -2.5657572e+00  -2.5728130e+00  -2.5798396e+00  -2.5869583e+00  -2.5940757e+00  -2.6012525e+00  -2.6084712e+00  -2.6158159e+00  -2.6231589e+00  -2.6305138e+00  -2.6378427e+00  -2.6451433e+00  -2.6524377e+00  -2.6598333e+00  -2.6672950e+00  -2.6747739e+00  -2.6821551e+00
-2.1718044e-02  -5.2946346e-02  -8.6333904e-02  -1.2006825e-01  -1.5213693e-01  -1.8909666e-01  -2.2546019e-01  -2.6195266e-01  -3.0104288e-01  -3.4239024e-01  -3.7875708e-01  -4.1532901e-01  -4.5440130e-01  -4.9745748e-01  -5.4294513e-01  -5.8786488e-01  -6.4147074e-01  -6.9396159e-01  -7.3817603e-01  -7.7586110e-01  -8.1188941e-01  -8.3674002e-01  -8.6086736e-01  -9.0231124e-01  -9.7415295e-01  -1.0663824e+00  -1.1593874e+00  -1.2307925e+00  -1.2941555e+00  -1.3588089e+00  -1.4276638e+00  -1.4864301e+00  -1.5497036e+00  -1.6220127e+00  -1.6706812e+00  -1.7079076e+00  -1.7357278e+00  -1.7653028e+00  -1.7967652e+00  -1.8085789e+00  -1.8162067e+00  -1.8260005e+00  -1.8645106e+00  -1.8875694e+00  -1.8784986e+00  -1.8752416e+00  -1.8752028e+00  -1.8711941e+00  -1.8651740e+00  -1.8544531e+00  -1.8596863e+00  -1.8624216e+00  -1.8500534e+00  -1.8426104e+00  -1.8103992e+00  -1.7839926e+00  -1.7752365e+00  -1.7627710e+00  -1.7410077e+00  -1.7220094e+00  -1.6822921e+00  -1.6835896e+00  -1.6982081e+00  -1.7017266e+00  -1.6897114e+00  -1.6772356e+00  -1.6898768e+00  -1.6940033e+00  -1.6836186e+00  -1.6791356e+00  -1.6845797e+00  -1.6909914e+00  -1.7035804e+00  -1.7221712e+00  -1.7454403e+00  -1.7576931e+00  -1.7556846e+00  -1.7669547e+00  -1.7856788e+00  -1.8011709e+00  -1.8111188e+00  -1.8284431e+00  -1.8661195e+00  -1.8829162e+00  -1.8834645e+00  -1.8925535e+00  -1.9060356e+00  -1.9196479e+00  -1.9415322e+00  -1.9626510e+00  -1.9781685e+00  -1.9918438e+00  -2.0149993e+00  -2.0222464e+00  -2.0271485e+00  -2.0453637e+00  -2.0752853e+00  -2.0899199e+00  -2.0861888e+00  -2.0922097e+00  -2.1051374e+00  -2.1075862e+00  -2.1064584e+00  -2.1119053e+00  -2.1264515e+00  -2.1351558e+00  -2.1465817e+00  -2.1516628e+00  -2.1653381e+00  -2.1889609e+00  -2.2112124e+00  -2.2321091e+00  -2.2600449e+00  -2.3006364e+00  -2.3264415e+00  -2.3138962e+00  -2.3296718e+00  -2.3746960e+00  -2.4122779e+00  -2.4422121e+00  -2.4712718e+00  -2.5134077e+00  -2.5391266e+00  -2.5628193e+00  -2.6016494e+00  -2.6516569e+00  -2.6796648e+00  -2.7128481e+00  -2.7544474e+00  -2.7975501e+00  -2.8340708e+00  -2.8575663e+00  -2.8741770e+00  -2.8958732e+00  -2.9193963e+00  -2.9349006e+00  -2.9625557e+00  -3.0008022e+00  -3.0197835e+00  -3.0237618e+00  -3.0151748e+00  -2.9645838e+00  -2.8911752e+00  -2.7862891e+00  -2.6576218e+00  -2.5247680e+00  -2.4230176e+00  -2.4091544e+00  -2.4161742e+00  -2.4231814e+00  -2.4301900e+00  -2.4372255e+00  -2.4442882e+00  -2.4513527e+00  -2.4584587e+00  -2.4655661e+00  -2.4725974e+00  -2.4795404e+00  -2.4864809e+00  -2.4934017e+00  -2.5003293e+00  -2.5074220e+00  -2.5145742e+00  -2.5217867e+00  -2.5289516e+00  -2.5361104e+00  -2.5432670e+00  -2.5504407e+00  -2.5576327e+00  -2.5648474e+00  -2.5720875e+00  -2.5793756e+00  -2.5865629e+00  -2.5937157e+00  -2.6008130e+00  -2.6079215e+00  -2.6150628e+00  -2.6223167e+00  -2.6296326e+00  -2.6370303e+00  -2.6444095e+00  -2.6517740e+00  -2.6591454e+00  -2.6665359e+00  -2.6739215e+00  -2.6813278e+00
-2.3340065e-02  -5.7707319e-02  -8.9345691e-02  -1.2050720e-01  -1.5307809e-01  -1.9111236e-01  -2.2853028e-01  -2.6411904e-01  -3.0369770e-01  -3.4550172e-01  -3.7968382e-01  -4.1722970e-01  -4.5838341e-01  -5.0014846e-01  -5.4587988e-01  -5.9133738e-01  -6.4156098e-01  -6.8871086e-01  -7.2870276e-01  -7.6826420e-01  -7.9708294e-01  -8.3006267e-01  -8.5949245e-01  -9.0766163e-01  -9.8346278e-01  -1.0674631e+00  -1.1576005e+00  -1.2464177e+00  -1.3276446e+00  -1.3916421e+00  -1.4423060e+00  -1.4863510e+00  -1.5308532e+00  -1.5932609e+00  -1.6490632e+00  -1.6949638e+00  -1.7518322e+00  -1.7762482e+00  -1.7938924e+00  -1.8194863e+00  -1.8410027e+00  -1.8358986e+00  -1.8386014e+00  -1.8543211e+00  -1.8642850e+00  -1.8665572e+00  -1.8560276e+00  -1.8489123e+00  -1.8392465e+00  -1.8371087e+00  -1.8333749e+00  -1.8330207e+00  -1.8388675e+00  -1.8254045e+00  -1.8118130e+00  -1.8004246e+00  -1.7975448e+00  -1.7858428e+00  -1.7610870e+00  -1.7293038e+00  -1.7084253e+00  -1.6988643e+00  -1.6957881e+00  -1.6982820e+00  -1.6913860e+00  -1.6807336e+00  -1.6800851e+00  -1.6830072e+00  -1.6876308e+00  -1.6884699e+00  -1.6862549e+00  -1.6886348e+00  -1.6971872e+00  -1.7091603e+00  -1.7200028e+00  -1.7311036e+00  -1.7504258e+00  -1.7699935e+00  -1.7885896e+00  -1.8084323e+00  -1.8223158e+00  -1.8340927e+00  -1.8515470e+00  -1.8594217e+00  -1.8763858e+00  -1.8990836e+00  -1.9096755e+00  -1.9142617e+00  -1.9324833e+00  -1.9539039e+00  -1.9652740e+00  -1.9753693e+00  -2.0001521e+00  -2.0212154e+00  -2.0265855e+00  -2.0424135e+00  -2.0605280e+00  -2.0708791e+00  -2.0803158e+00  -2.0718127e+00  -2.0856045e+00  -2.1002356e+00  -2.0968277e+00  -2.0995849e+00  -2.1138990e+00  -2.1332556e+00  -2.1529222e+00  -2.1647588e+00  -2.1736291e+00  -2.1792808e+00  -2.1987288e+00  -2.2261135e+00  -2.2582541e+00  -2.2887547e+00  -2.3069999e+00  -2.3126386e+00  -2.3436720e+00  -2.3853340e+00  -2.4181779e+00  -2.4527643e+00  -2.4881264e+00  -2.5092188e+00  -2.5484088e+00  -2.6067282e+00  -2.6402669e+00  -2.6546357e+00  -2.6879800e+00  -2.7217978e+00  -2.7593298e+00  -2.7994353e+00  -2.8193441e+00  -2.8419585e+00  -2.8740578e+00  -2.9250618e+00  -2.9651249e+00  -2.9624460e+00  -2.9694006e+00  -2.9956223e+00  -2.9662481e+00  -2.8897465e+00  -2.8355516e+00  -2.7812829e+00  -2.7111218e+00  -2.6447553e+00  -2.5688731e+00  -2.4782312e+00  -2.4071642e+00  -2.4076771e+00  -2.4147638e+00  -2.4218750e+00  -2.4289858e+00  -2.4360445e+00  -2.4431118e+00  -2.4501938e+00  -2.4572761e+00  -2.4643799e+00  -2.4714978e+00  -2.4786553e+00  -2.4858317e+00  -2.4928292e+00  -2.4998236e+00  -2.5067820e+00  -2.5137562e+00  -2.5207795e+00  -2.5279256e+00  -2.5351385e+00  -2.5423658e+00  -2.5495880e+00  -2.5567933e+00  -2.5639849e+00  -2.5711974e+00  -2.5784387e+00  -2.5857217e+00  -2.5930473e+00  -2.6004064e+00  -2.6076048e+00  -2.6147714e+00  -2.6219373e+00  -2.6291231e+00  -2.6363451e+00  -2.6436201e+00  -2.6510564e+00  -2.6584987e+00  -2.6659361e+00  -2.6733617e+00  -2.6807634e+00
-2.5620063e-02  -6.1824508e-02  -9.3050022e-02  -1.2198011e-01  -1.5447513e-01  -1.9111914e-01  -2.2852463e-01  -2.6463442e-01  -3.0374995e-01  -3.4284546e-01  -3.8125214e-01  -4.1913970e-01  -4.5777383e-01  -4.9792287e-01  -5.4155826e-01  -5.8607188e-01  -6.3376532e-01  -6.7937264e-01  -7.1822125e-01  -7.6130471e-01  -7.9290197e-01  -8.2295438e-01  -8.5687480e-01  -9.1084355e-01  -9.9090692e-01  -1.0741171e+00  -1.1468870e+00  -1.2200039e+00  -1.3116484e+00  -1.3995898e+00  -1.4571861e+00  -1.4788314e+00  -1.5055890e+00  -1.5426511e+00  -1.5857920e+00  -1.6307648e+00  -1.6928438e+00  -1.7569292e+00  -1.7846539e+00  -1.7994516e+00  -1.8224724e+00  -1.8523524e+00  -1.8540838e+00  -1.8613125e+00  -1.8741245e+00  -1.8839273e+00  -1.9063968e+00  -1.8966333e+00  -1.8640932e+00  -1.8551422e+00  -1.8480076e+00  -1.8377321e+00  -1.8293098e+00  -1.8228939e+00  -1.8094543e+00  -1.8035300e+00  -1.8009710e+00  -1.7850517e+00  -1.7523880e+00  -1.7207962e+00  -1.6981870e+00  -1.6898332e+00  -1.6836282e+00  -1.6856259e+00  -1.6805107e+00  -1.6657414e+00  -1.6575464e+00  -1.6605455e+00  -1.6684326e+00  -1.6730226e+00  -1.6804818e+00  -1.6879365e+00  -1.6951005e+00  -1.7031073e+00  -1.7159353e+00  -1.7319078e+00  -1.7475508e+00  -1.7593708e+00  -1.7711833e+00  -1.7929516e+00  -1.8178918e+00  -1.8321718e+00  -1.8411846e+00  -1.8572743e+00  -1.8822579e+00  -1.8954955e+00  -1.9069369e+00  -1.9177958e+00  -1.9333007e+00  -1.9468952e+00  -1.9628963e+00  -1.9804060e+00  -1.9934520e+00  -2.0109511e+00  -2.0278949e+00  -2.0378868e+00  -2.0357937e+00  -2.0561989e+00  -2.0726990e+00  -2.0869675e+00  -2.1007033e+00  -2.0980658e+00  -2.0930938e+00  -2.1012997e+00  -2.1157914e+00  -2.1339471e+00  -2.1494078e+00  -2.1644396e+00  -2.1706888e+00  -2.1855751e+00  -2.2109765e+00  -2.2319631e+00  -2.2389618e+00  -2.2553612e+00  -2.2908340e+00  -2.3221889e+00  -2.3519450e+00  -2.3861772e+00  -2.4215333e+00  -2.4620663e+00  -2.4935257e+00  -2.5219629e+00  -2.5625556e+00  -2.6111897e+00  -2.6281035e+00  -2.6763562e+00  -2.7197288e+00  -2.7393121e+00  -2.7549498e+00  -2.7907875e+00  -2.8166345e+00  -2.8355819e+00  -2.8659798e+00  -2.8970488e+00  -2.9227427e+00  -2.9429134e+00  -2.9763557e+00  -2.9403995e+00  -2.8321009e+00  -2.7299865e+00  -2.6489479e+00  -2.5750961e+00  -2.4995361e+00  -2.4237803e+00  -2.3932286e+00  -2.3931241e+00  -2.3995814e+00  -2.4065472e+00  -2.4134455e+00  -2.4203295e+00  -2.4273063e+00  -2.4344349e+00  -2.4416240e+00  -2.4487597e+00  -2.4558850e+00  -2.4629843e+00  -2.4700899e+00  -2.4772548e+00  -2.4844437e+00  -2.4916132e+00  -2.4987878e+00  -2.5059638e+00  -2.5130279e+00  -2.5200484e+00  -2.5270841e+00  -2.5341018e+00  -2.5412037e+00  -2.5483879e+00  -2.5557431e+00  -2.5630115e+00  -2.5702450e+00  -2.5774813e+00  -2.5847468e+00  -2.5920320e+00  -2.5993627e+00  -2.6067313e+00  -2.6141241e+00  -2.6214853e+00  -2.6288336e+00  -2.6360703e+00  -2.6432703e+00  -2.6504694e+00  -2.6577598e+00  -2.6651170e+00  -2.6726355e+00  -2.6801436e+00
-2.3567233e-02  -5.9853344e-02  -9.4449889e-02  -1.2690857e-01  -1.5885818e-01  -1.9300697e-01  -2.3008092e-01  -2.6806731e-01  -3.0344651e-01  -3.4271583e-01  -3.8129809e-01  -4.1527895e-01  -4.4702101e-01  -4.8310116e-01  -5.3278007e-01  -5.8209561e-01  -6.3406495e-01  -6.8388887e-01  -7.2238807e-01  -7.6126848e-01  -7.9583747e-01  -8.2659868e-01  -8.5350342e-01  -9.0292529e-01  -9.8167635e-01  -1.0642188e+00  -1.1459283e+00  -1.2439506e+00  -1.3380178e+00  -1.4011372e+00  -1.4750653e+00  -1.5181014e+00  -1.5596214e+00  -1.5790429e+00  -1.5899821e+00  -1.6049887e+00  -1.6391090e+00  -1.6832242e+00  -1.7221965e+00  -1.7574536e+00  -1.7868533e+00  -1.8149980e+00  -1.8384813e+00  -1.8528864e+00  -1.8665725e+00  -1.8696829e+00  -1.8635632e+00  -1.8746080e+00  -1.8812040e+00  -1.8731803e+00  -1.8616409e+00  -1.8484706e+00  -1.8285055e+00  -1.8090511e+00  -1.7995415e+00  -1.7930319e+00  -1.7886690e+00  -1.7862959e+00  -1.7621379e+00  -1.7341474e+00  -1.7092834e+00  -1.6957829e+00  -1.6861019e+00  -1.6677254e+00  -1.6660359e+00  -1.6705015e+00  -1.6673027e+00  -1.6658840e+00  -1.6659313e+00  -1.6616750e+00  -1.6706043e+00  -1.6835243e+00  -1.6881031e+00  -1.6974987e+00  -1.7148647e+00  -1.7395457e+00  -1.7693400e+00  -1.7820108e+00  -1.7873015e+00  -1.8001126e+00  -1.8171042e+00  -1.8301923e+00  -1.8398423e+00  -1.8521261e+00  -1.8576236e+00  -1.8734401e+00  -1.8963374e+00  -1.9047502e+00  -1.9229009e+00  -1.9503560e+00  -1.9716638e+00  -1.9752114e+00  -1.9908035e+00  -2.0137090e+00  -2.0339254e+00  -2.0548925e+00  -2.0560170e+00  -2.0553415e+00  -2.0664274e+00  -2.0859270e+00  -2.0957001e+00  -2.0924887e+00  -2.0959483e+00  -2.1046891e+00  -2.1189140e+00  -2.1367595e+00  -2.1543887e+00  -2.1746280e+00  -2.1842394e+00  -2.1908924e+00  -2.2002025e+00  -2.2104560e+00  -2.2313629e+00  -2.2540901e+00  -2.2953846e+00  -2.3365042e+00  -2.3791601e+00  -2.4136221e+00  -2.4250809e+00  -2.4600906e+00  -2.5070694e+00  -2.5445567e+00  -2.5739534e+00  -2.6044986e+00  -2.6421496e+00  -2.6738576e+00  -2.7175394e+00  -2.7351525e+00  -2.7646376e+00  -2.7925276e+00  -2.8377610e+00  -2.8711943e+00  -2.8875144e+00  -2.9009205e+00  -2.9333259e+00  -2.9707528e+00  -2.9858742e+00  -2.9223316e+00  -2.8068958e+00  -2.6769719e+00  -2.5488910e+00  -2.4292430e+00  -2.3782120e+00  -2.3763929e+00  -2.3834780e+00  -2.3906058e+00  -2.3977706e+00  -2.4049171e+00  -2.4119622e+00  -2.4189262e+00  -2.4258743e+00  -2.4328299e+00  -2.4397947e+00  -2.4468952e+00  -2.4540361e+00  -2.4612564e+00  -2.4684696e+00  -2.4756402e+00  -2.4827972e+00  -2.4899625e+00  -2.4971443e+00  -2.5043655e+00  -2.5116384e+00  -2.5189303e+00  -2.5260602e+00  -2.5331669e+00  -2.5402450e+00  -2.5473390e+00  -2.5544344e+00  -2.5616362e+00  -2.5688928e+00  -2.5762444e+00  -2.5836080e+00  -2.5909521e+00  -2.5982611e+00  -2.6055901e+00  -2.6129561e+00  -2.6203745e+00  -2.6278324e+00  -2.6353290e+00  -2.6426938e+00  -2.6500110e+00  -2.6572921e+00  -2.6645773e+00  -2.6718297e+00  -2.6791262e+00
-1.8582700e-02  -5.6822576e-02  -9.1649201e-02  -1.2431397e-01  -1.5784010e-01  -1.9213085e-01  -2.2761158e-01  -2.6429015e-01  -3.0283409e-01  -3.4232108e-01  -3.7952311e-01  -4.1542403e-01  -4.4223050e-01  -4.8405203e-01  -5.3337482e-01  -5.8536725e-01  -6.3780949e-01  -6.7921571e-01  -7.1566776e-01  -7.5906662e-01  -7.9534158e-01  -8.2954450e-01  -8.6669902e-01  -9.2178717e-01  -9.8845575e-01  -1.0581568e+00  -1.1276083e+00  -1.2043492e+00  -1.2867223e+00  -1.3909563e+00  -1.4890072e+00  -1.5682304e+00  -1.6304480e+00  -1.6596023e+00  -1.6616143e+00  -1.6620691e+00  -1.6678246e+00  -1.6983220e+00  -1.7293492e+00  -1.7443652e+00  -1.7630732e+00  -1.7934307e+00  -1.8133279e+00  -1.8312594e+00  -1.8448979e+00  -1.8476779e+00  -1.8460031e+00  -1.8528692e+00  -1.8514830e+00  -1.8376468e+00  -1.8404157e+00  -1.8422979e+00  -1.8326577e+00  -1.8345076e+00  -1.8400410e+00  -1.8216791e+00  -1.7965999e+00  -1.7756790e+00  -1.7554475e+00  -1.7385921e+00  -1.7193176e+00  -1.7033926e+00  -1.6979080e+00  -1.6800682e+00  -1.6637632e+00  -1.6596338e+00  -1.6675703e+00  -1.6701594e+00  -1.6652128e+00  -1.6572622e+00  -1.6547664e+00  -1.6536270e+00  -1.6657990e+00  -1.6810476e+00  -1.7019867e+00  -1.7309479e+00  -1.7584814e+00  -1.7739033e+00  -1.7675019e+00  -1.7851920e+00  -1.8027374e+00  -1.8196719e+00  -1.8338154e+00  -1.8436486e+00  -1.8561785e+00  -1.8669044e+00  -1.8863820e+00  -1.9037699e+00  -1.9318352e+00  -1.9733328e+00  -1.9858174e+00  -1.9893120e+00  -1.9917586e+00  -1.9989833e+00  -2.0137811e+00  -2.0312796e+00  -2.0454304e+00  -2.0490867e+00  -2.0580443e+00  -2.0737229e+00  -2.0814298e+00  -2.0796072e+00  -2.0878974e+00  -2.1008489e+00  -2.1196552e+00  -2.1403568e+00  -2.1557152e+00  -2.1687845e+00  -2.1796368e+00  -2.1980220e+00  -2.2163860e+00  -2.2127553e+00  -2.2301165e+00  -2.2650767e+00  -2.3016199e+00  -2.3407568e+00  -2.3791487e+00  -2.4361480e+00  -2.4794291e+00  -2.5089946e+00  -2.5288255e+00  -2.5513439e+00  -2.5794653e+00  -2.6007266e+00  -2.6274706e+00  -2.6904285e+00  -2.7362694e+00  -2.7486255e+00  -2.7608190e+00  -2.7948169e+00  -2.8409062e+00  -2.8740355e+00  -2.8926896e+00  -2.9146732e+00  -2.9530362e+00  -2.9907337e+00  -3.0056539e+00  -2.9413855e+00  -2.8227263e+00  -2.6719357e+00  -2.5370046e+00  -2.4193815e+00  -2.3725467e+00  -2.3742953e+00  -2.3813974e+00  -2.3884808e+00  -2.3955899e+00  -2.4027293e+00  -2.4098989e+00  -2.4170893e+00  -2.4243298e+00  -2.4313162e+00  -2.4383165e+00  -2.4453104e+00  -2.4523225e+00  -2.4593517e+00  -2.4665232e+00  -2.4737653e+00  -2.4810212e+00  -2.4882695e+00  -2.4955127e+00  -2.5027323e+00  -2.5099494e+00  -2.5171968e+00  -2.5244831e+00  -2.5318195e+00  -2.5391617e+00  -2.5463502e+00  -2.5534786e+00  -2.5605913e+00  -2.5677464e+00  -2.5749361e+00  -2.5821721e+00  -2.5895865e+00  -2.5969863e+00  -2.6043974e+00  -2.6118041e+00  -2.6191988e+00  -2.6265922e+00  -2.6340196e+00  -2.6414802e+00  -2.6489748e+00  -2.6564616e+00  -2.6639137e+00  -2.6712039e+00  -2.6784870e+00
-2.1582029e-02  -5.7711029e-02  -9.3073422e-02  -1.2540381e-01  -1.5524686e-01  -1.8905172e-01  -2.2829950e-01  -2.6613292e-01  -3.0191316e-01  -3.4075166e-01  -3.7996279e-01  -4.1659620e-01  -4.4706437e-01  -4.8808434e-01  -5.3615045e-01  -5.8569182e-01  -6.3456185e-01  -6.8050207e-01  -7.2074283e-01  -7.5409683e-01  -7.8196587e-01  -8.1306140e-01  -8.5782361e-01  -9.2184576e-01  -1.0087663e+00  -1.0894299e+00  -1.1560627e+00  -1.2301002e+00  -1.3333750e+00  -1.4199452e+00  -1.4773209e+00  -1.5220135e+00  -1.5796512e+00  -1.6355317e+00  -1.6564807e+00  -1.6675296e+00  -1.6926520e+00  -1.7304964e+00  -1.7512785e+00  -1.7646149e+00  -1.7666421e+00  -1.7735949e+00  -1.7818511e+00  -1.8136438e+00  -1.8419953e+00  -1.8449460e+00  -1.8618136e+00  -1.8807176e+00  -1.8670006e+00  -1.8478765e+00  -1.8528323e+00  -1.8500936e+00  -1.8552989e+00  -1.8452452e+00  -1.8170136e+00  -1.8012784e+00  -1.7957440e+00  -1.7773269e+00  -1.7589705e+00  -1.7452561e+00  -1.7336079e+00  -1.7190097e+00  -1.7082947e+00  -1.6928163e+00  -1.6755336e+00  -1.6625150e+00  -1.6554892e+00  -1.6490449e+00  -1.6419668e+00  -1.6418268e+00  -1.6479251e+00  -1.6532281e+00  -1.6477093e+00  -1.6665826e+00  -1.6970939e+00  -1.7198716e+00  -1.7314682e+00  -1.7349787e+00  -1.7494319e+00  -1.7668421e+00  -1.7858201e+00  -1.8044063e+00  -1.8274189e+00  -1.8382931e+00  -1.8469381e+00  -1.8603155e+00  -1.8846408e+00  -1.9045601e+00  -1.9201272e+00  -1.9381153e+00  -1.9620925e+00  -1.9790411e+00  -1.9904943e+00  -1.9998005e+00  -2.0041301e+00  -2.0105614e+00  -2.0197368e+00  -2.0338531e+00  -2.0476826e+00  -2.0566497e+00  -2.0657808e+00  -2.0811227e+00  -2.0919864e+00  -2.0977346e+00  -2.1103768e+00  -2.1369153e+00  -2.1566244e+00  -2.1627552e+00  -2.1744081e+00  -2.1888333e+00  -2.2049092e+00  -2.2328906e+00  -2.2650560e+00  -2.2881320e+00  -2.3164486e+00  -2.3486496e+00  -2.3832110e+00  -2.4474439e+00  -2.4912580e+00  -2.5149391e+00  -2.5434292e+00  -2.5874363e+00  -2.6053210e+00  -2.6134875e+00  -2.6457430e+00  -2.6962173e+00  -2.7385379e+00  -2.7586916e+00  -2.7786554e+00  -2.8143090e+00  -2.8533402e+00  -2.8796763e+00  -2.8921423e+00  -2.9176450e+00  -2.9545326e+00  -2.9797712e+00  -2.9629566e+00  -2.8788304e+00  -2.7685468e+00  -2.6454573e+00  -2.5165318e+00  -2.4089931e+00  -2.3649092e+00  -2.3720018e+00  -2.3791839e+00  -2.3863490e+00  -2.3935020e+00  -2.4006436e+00  -2.4077786e+00  -2.4149275e+00  -2.4221115e+00  -2.4293473e+00  -2.4366132e+00  -2.4438155e+00  -2.4508902e+00  -2.4579269e+00  -2.4649803e+00  -2.4720668e+00  -2.4792314e+00  -2.4864440e+00  -2.4937727e+00  -2.5010708e+00  -2.5083970e+00  -2.5156962e+00  -2.5229787e+00  -2.5302570e+00  -2.5375565e+00  -2.5449234e+00  -2.5523255e+00  -2.5596491e+00  -2.5669173e+00  -2.5740800e+00  -2.5812606e+00  -2.5884602e+00  -2.5957252e+00  -2.6030449e+00  -2.6105231e+00  -2.6179851e+00  -2.6254257e+00  -2.6328513e+00  -2.6402763e+00  -2.6477066e+00  -2.6551605e+00  -2.6626436e+00  -2.6701565e+00  -2.6776137e+00
-2.5501631e-02  -5.7418539e-02  -8.9338396e-02  -1.2400280e-01  -1.5836786e-01  -1.9129102e-01  -2.2610360e-01  -2.6443208e-01  -3.0128107e-01  -3.3848988e-01  -3.7650609e-01  -4.1121484e-01  -4.4866746e-01  -4.9381512e-01  -5.4209761e-01  -5.8960233e-01  -6.3715284e-01  -6.8156556e-01  -7.1593334e-01  -7.4841367e-01  -7.7920780e-01  -8.1264278e-01  -8.6172444e-01  -9.2684430e-01  -1.0144791e+00  -1.0972426e+00  -1.1550826e+00  -1.2048011e+00  -1.2816117e+00  -1.3845053e+00  -1.4714515e+00  -1.5025898e+00  -1.5243389e+00  -1.6080136e+00  -1.6660423e+00  -1.6757489e+00  -1.6941069e+00  -1.7298541e+00  -1.7493243e+00  -1.7634660e+00  -1.7637163e+00  -1.7704155e+00  -1.7745527e+00  -1.7737313e+00  -1.8099748e+00  -1.8198026e+00  -1.8333134e+00  -1.8506216e+00  -1.8777670e+00  -1.8606863e+00  -1.8594172e+00  -1.8806465e+00  -1.8885706e+00  -1.8503214e+00  -1.8225778e+00  -1.8126138e+00  -1.7981523e+00  -1.7770622e+00  -1.7626695e+00  -1.7511922e+00  -1.7321307e+00  -1.7064286e+00  -1.6838651e+00  -1.6686165e+00  -1.6563653e+00  -1.6463962e+00  -1.6388005e+00  -1.6514927e+00  -1.6585849e+00  -1.6524596e+00  -1.6490680e+00  -1.6587203e+00  -1.6631478e+00  -1.6781824e+00  -1.7007204e+00  -1.7129584e+00  -1.7124168e+00  -1.7203875e+00  -1.7377352e+00  -1.7578781e+00  -1.7788264e+00  -1.8012075e+00  -1.8141963e+00  -1.8314320e+00  -1.8479599e+00  -1.8638928e+00  -1.8812869e+00  -1.8998318e+00  -1.9092094e+00  -1.9366829e+00  -1.9607873e+00  -1.9799677e+00  -1.9892834e+00  -1.9875956e+00  -2.0021999e+00  -2.0182025e+00  -2.0315051e+00  -2.0424998e+00  -2.0464570e+00  -2.0548782e+00  -2.0695160e+00  -2.0759796e+00  -2.0813404e+00  -2.0915465e+00  -2.1097347e+00  -2.1264537e+00  -2.1356881e+00  -2.1555662e+00  -2.1732731e+00  -2.1854999e+00  -2.2070316e+00  -2.2509132e+00  -2.2801418e+00  -2.2864707e+00  -2.3090553e+00  -2.3640168e+00  -2.4135018e+00  -2.4587965e+00  -2.5017793e+00  -2.5245148e+00  -2.5323427e+00  -2.5708716e+00  -2.6007282e+00  -2.6132269e+00  -2.6418246e+00  -2.6861634e+00  -2.7306999e+00  -2.7641318e+00  -2.7814924e+00  -2.8115753e+00  -2.8372814e+00  -2.8592903e+00  -2.8777084e+00  -2.9199073e+00  -2.9468642e+00  -2.9564593e+00  -2.9512997e+00  -2.8985337e+00  -2.7748263e+00  -2.6424738e+00  -2.5174100e+00  -2.4097743e+00  -2.3633319e+00  -2.3700123e+00  -2.3769833e+00  -2.3841021e+00  -2.3912645e+00  -2.3984898e+00  -2.4057051e+00  -2.4129164e+00  -2.4201095e+00  -2.4273065e+00  -2.4345158e+00  -2.4417602e+00  -2.4490903e+00  -2.4564549e+00  -2.4636441e+00  -2.4707989e+00  -2.4778968e+00  -2.4850426e+00  -2.4922016e+00  -2.4994614e+00  -2.5067807e+00  -2.5141589e+00  -2.5215397e+00  -2.5288985e+00  -2.5362333e+00  -2.5435663e+00  -2.5509038e+00  -2.5582655e+00  -2.5656630e+00  -2.5731083e+00  -2.5804386e+00  -2.5877166e+00  -2.5949262e+00  -2.6021436e+00  -2.6093756e+00  -2.6166432e+00  -2.6240910e+00  -2.6315737e+00  -2.6390502e+00  -2.6465031e+00  -2.6539243e+00  -2.6613453e+00  -2.6687883e+00  -2.6762528e+00
-2.6422172e-02  -5.6189631e-02  -8.3730461e-02  -1.1540794e-01  -1.4830545e-01  -1.8002567e-01  -2.1772298e-01  -2.5604044e-01  -2.9316415e-01  -3.3271841e-01  -3.7303909e-01  -4.1153743e-01  -4.5231799e-01  -4.9578983e-01  -5.4168637e-01  -5.9300374e-01  -6.4117168e-01  -6.7927669e-01  -7.1465099e-01  -7.4742201e-01  -7.7250792e-01  -8.0534953e-01  -8.4990998e-01  -9.0964203e-01  -9.9260344e-01  -1.0733749e+00  -1.1322243e+00  -1.1941291e+00  -1.2565639e+00  -1.3292217e+00  -1.4294813e+00  -1.5541274e+00  -1.5654703e+00  -1.5701425e+00  -1.6011683e+00  -1.6577172e+00  -1.7072409e+00  -1.7101598e+00  -1.7122833e+00  -1.7592383e+00  -1.7846099e+00  -1.7849113e+00  -1.7950781e+00  -1.7929609e+00  -1.7955290e+00  -1.8155024e+00  -1.8410935e+00  -1.8476457e+00  -1.8536096e+00  -1.8540097e+00  -1.8534242e+00  -1.8617418e+00  -1.8630974e+00  -1.8563453e+00  -1.8482623e+00  -1.8346491e+00  -1.8128586e+00  -1.7821044e+00  -1.7545196e+00  -1.7287006e+00  -1.6993343e+00  -1.6839805e+00  -1.6751934e+00  -1.6618772e+00  -1.6498903e+00  -1.6359675e+00  -1.6237569e+00  -1.6350682e+00  -1.6412788e+00  -1.6415349e+00  -1.6436444e+00  -1.6562427e+00  -1.6746757e+00  -1.6857920e+00  -1.6843586e+00  -1.6929518e+00  -1.7052172e+00  -1.7226153e+00  -1.7412012e+00  -1.7582221e+00  -1.7741304e+00  -1.7896467e+00  -1.8024798e+00  -1.8207634e+00  -1.8420823e+00  -1.8600547e+00  -1.8748492e+00  -1.8983854e+00  -1.9078389e+00  -1.9152709e+00  -1.9345057e+00  -1.9526584e+00  -1.9707118e+00  -1.9744275e+00  -1.9863060e+00  -2.0128373e+00  -2.0294137e+00  -2.0285494e+00  -2.0333683e+00  -2.0427186e+00  -2.0564933e+00  -2.0684069e+00  -2.0750918e+00  -2.0895398e+00  -2.0917142e+00  -2.1086158e+00  -2.1329629e+00  -2.1547632e+00  -2.1797541e+00  -2.2117577e+00  -2.2298839e+00  -2.2626229e+00  -2.3067490e+00  -2.3304017e+00  -2.3348429e+00  -2.3855609e+00  -2.4334139e+00  -2.4666919e+00  -2.4912006e+00  -2.5140616e+00  -2.5358447e+00  -2.5667571e+00  -2.5931735e+00  -2.6181455e+00  -2.6507647e+00  -2.6880165e+00  -2.7293382e+00  -2.7590996e+00  -2.7971916e+00  -2.8412762e+00  -2.8662384e+00  -2.9071924e+00  -2.9294758e+00  -2.9441126e+00  -2.9505436e+00  -2.9346065e+00  -2.9333144e+00  -2.9611573e+00  -2.9021586e+00  -2.7983516e+00  -2.6881413e+00  -2.5805995e+00  -2.4640893e+00  -2.3902009e+00  -2.3752781e+00  -2.3822674e+00  -2.3892933e+00  -2.3963453e+00  -2.4035381e+00  -2.4107996e+00  -2.4180765e+00  -2.4253736e+00  -2.4326626e+00  -2.4399318e+00  -2.4472084e+00  -2.4545080e+00  -2.4618697e+00  -2.4692705e+00  -2.4766886e+00  -2.4839536e+00  -2.4911441e+00  -2.4983290e+00  -2.5055273e+00  -2.5127649e+00  -2.5200302e+00  -2.5274843e+00  -2.5348977e+00  -2.5422927e+00  -2.5496689e+00  -2.5570310e+00  -2.5643799e+00  -2.5717530e+00  -2.5791505e+00  -2.5865763e+00  -2.5939902e+00  -2.6013610e+00  -2.6086018e+00  -2.6158320e+00  -2.6230645e+00  -2.6303075e+00  -2.6375745e+00  -2.6450784e+00  -2.6525614e+00  -2.6600365e+00  -2.6674768e+00  -2.6749069e+00
-1.8264570e-02  -5.1349373e-02  -8.5421549e-02  -1.1510851e-01  -1.4528675e-01  -1.7686132e-01  -2.1329205e-01  -2.5167024e-01  -2.9081440e-01  -3.3350794e-01  -3.7462755e-01  -4.1382244e-01  -4.5248088e-01  -4.9484622e-01  -5.4525547e-01  -5.9319254e-01  -6.3939358e-01  -6.8049931e-01  -7.1393224e-01  -7.5000453e-01  -7.8090031e-01  -8.1753594e-01  -8.7086521e-01  -9.3396331e-01  -1.0041475e+00  -1.0735235e+00  -1.1340920e+00  -1.2132088e+00  -1.3078881e+00  -1.3725092e+00  -1.4098827e+00  -1.4792015e+00  -1.5255011e+00  -1.5988513e+00  -1.6609167e+00  -1.6725650e+00  -1.6842473e+00  -1.6844410e+00  -1.7000207e+00  -1.7243026e+00  -1.7543964e+00  -1.7832753e+00  -1.8093783e+00  -1.8190384e+00  -1.8197493e+00  -1.8276508e+00  -1.8477158e+00  -1.8569809e+00  -1.8611485e+00  -1.8628686e+00  -1.8660585e+00  -1.8677454e+00  -1.8636020e+00  -1.8676142e+00  -1.8642367e+00  -1.8448253e+00  -1.8221769e+00  -1.8022414e+00  -1.7699825e+00  -1.7314124e+00  -1.6949600e+00  -1.6901948e+00  -1.6868677e+00  -1.6682933e+00  -1.6583368e+00  -1.6336167e+00  -1.6290989e+00  -1.6321630e+00  -1.6345432e+00  -1.6460967e+00  -1.6498476e+00  -1.6526664e+00  -1.6694499e+00  -1.6695648e+00  -1.6632971e+00  -1.6848871e+00  -1.6958504e+00  -1.7097642e+00  -1.7235475e+00  -1.7397017e+00  -1.7637917e+00  -1.7853885e+00  -1.7999563e+00  -1.8165582e+00  -1.8366750e+00  -1.8532556e+00  -1.8701322e+00  -1.8919069e+00  -1.9078223e+00  -1.9161640e+00  -1.9308154e+00  -1.9526399e+00  -1.9719911e+00  -1.9779579e+00  -1.9817869e+00  -1.9978980e+00  -2.0134699e+00  -2.0246272e+00  -2.0301351e+00  -2.0357984e+00  -2.0471818e+00  -2.0643703e+00  -2.0686434e+00  -2.0758391e+00  -2.0944853e+00  -2.1092338e+00  -2.1301070e+00  -2.1546895e+00  -2.1722129e+00  -2.1932333e+00  -2.2156400e+00  -2.2510456e+00  -2.2939034e+00  -2.3294550e+00  -2.3461230e+00  -2.3827852e+00  -2.4292956e+00  -2.4619850e+00  -2.4788414e+00  -2.5056005e+00  -2.5439465e+00  -2.5747545e+00  -2.6007161e+00  -2.6362137e+00  -2.6758542e+00  -2.7029605e+00  -2.7305305e+00  -2.7705414e+00  -2.8037156e+00  -2.8392669e+00  -2.8698150e+00  -2.8950125e+00  -2.9278125e+00  -2.9468531e+00  -2.9388237e+00  -2.9190548e+00  -2.9368765e+00  -2.9805402e+00  -3.0110513e+00  -2.9891129e+00  -2.9042560e+00  -2.7936902e+00  -2.6751565e+00  -2.5426378e+00  -2.4362835e+00  -2.3816726e+00  -2.3880225e+00  -2.3947247e+00  -2.4083329e+00  -2.4089074e+00  -2.4161120e+00  -2.4233674e+00  -2.4307498e+00  -2.4381266e+00  -2.4454928e+00  -2.4528655e+00  -2.4602339e+00  -2.4675998e+00  -2.4749887e+00  -2.4824256e+00  -2.4899110e+00  -2.4973080e+00  -2.5046424e+00  -2.5118694e+00  -2.5190888e+00  -2.5263035e+00  -2.5335764e+00  -2.5409053e+00  -2.5483552e+00  -2.5557775e+00  -2.5631679e+00  -2.5705226e+00  -2.5778728e+00  -2.5852270e+00  -2.5926076e+00  -2.6000210e+00  -2.6074466e+00  -2.6148236e+00  -2.6221774e+00  -2.6294047e+00  -2.6366415e+00  -2.6438674e+00  -2.6511051e+00  -2.6584842e+00  -2.6659544e+00  -2.6734597e+00
-1.3384950e-02  -4.7358933e-02  -8.2035590e-02  -1.1631301e-01  -1.4802065e-01  -1.7846380e-01  -2.1196922e-01  -2.4861976e-01  -2.8940194e-01  -3.3119831e-01  -3.7180101e-01  -4.0915299e-01  -4.4741754e-01  -4.9265809e-01  -5.4451451e-01  -5.8963474e-01  -6.3538889e-01  -6.7947982e-01  -7.1306495e-01  -7.4646585e-01  -7.8500252e-01  -8.2552860e-01  -8.7412488e-01  -9.4167690e-01  -1.0108928e+00  -1.0662553e+00  -1.1166509e+00  -1.1942511e+00  -1.3024774e+00  -1.4181210e+00  -1.4522685e+00  -1.4623494e+00  -1.5008877e+00  -1.5820993e+00  -1.6732042e+00  -1.7258430e+00  -1.7446167e+00  -1.7396520e+00  -1.7452521e+00  -1.7644011e+00  -1.7823229e+00  -1.7772291e+00  -1.7956128e+00  -1.8153507e+00  -1.8276486e+00  -1.8358779e+00  -1.8506460e+00  -1.8591160e+00  -1.8527364e+00  -1.8476411e+00  -1.8508951e+00  -1.8651268e+00  -1.8666216e+00  -1.8716664e+00  -1.8683870e+00  -1.8574023e+00  -1.8413488e+00  -1.8040504e+00  -1.7706837e+00  -1.7415759e+00  -1.7235172e+00  -1.7012145e+00  -1.6600368e+00  -1.6580059e+00  -1.6404598e+00  -1.6358593e+00  -1.6307470e+00  -1.6251885e+00  -1.6255369e+00  -1.6252885e+00  -1.6271572e+00  -1.6451175e+00  -1.6495862e+00  -1.6489144e+00  -1.6636617e+00  -1.6713830e+00  -1.6903030e+00  -1.7125369e+00  -1.7277941e+00  -1.7371691e+00  -1.7524220e+00  -1.7724224e+00  -1.7980498e+00  -1.8240056e+00  -1.8446781e+00  -1.8564124e+00  -1.8615687e+00  -1.8801255e+00  -1.9041439e+00  -1.9241408e+00  -1.9412440e+00  -1.9583547e+00  -1.9621729e+00  -1.9705612e+00  -1.9842936e+00  -2.0070717e+00  -2.0210277e+00  -2.0279002e+00  -2.0340732e+00  -2.0390083e+00  -2.0400924e+00  -2.0466501e+00  -2.0649720e+00  -2.0780849e+00  -2.0935666e+00  -2.1077511e+00  -2.1286366e+00  -2.1494424e+00  -2.1684248e+00  -2.1923253e+00  -2.2171413e+00  -2.2484228e+00  -2.2916005e+00  -2.3468944e+00  -2.3592761e+00  -2.3720856e+00  -2.4164698e+00  -2.4692368e+00  -2.5044450e+00  -2.5214633e+00  -2.5538317e+00  -2.5813443e+00  -2.6144878e+00  -2.6517496e+00  -2.6814528e+00  -2.7253520e+00  -2.7673043e+00  -2.8023479e+00  -2.8444502e+00  -2.8727235e+00  -2.8780617e+00  -2.8737999e+00  -2.9097783e+00  -2.9310680e+00  -2.9591552e+00  -2.9718657e+00  -2.9861127e+00  -3.0012008e+00  -3.0179344e+00  -3.0505993e+00  -3.0699463e+00  -2.9954466e+00  -2.8810334e+00  -2.7473797e+00  -2.6304070e+00  -2.5438176e+00  -2.5186287e+00  -2.4862882e+00  -2.4565349e+00  -2.4157505e+00  -2.4146184e+00  -2.4217937e+00  -2.4290077e+00  -2.4363373e+00  -2.4437333e+00  -2.4512104e+00  -2.4586646e+00  -2.4661107e+00  -2.4735492e+00  -2.4809735e+00  -2.4884012e+00  -2.4958486e+00  -2.5033174e+00  -2.5108135e+00  -2.5181844e+00  -2.5254931e+00  -2.5327199e+00  -2.5399344e+00  -2.5471300e+00  -2.5543611e+00  -2.5617418e+00  -2.5691577e+00  -2.5765761e+00  -2.5839303e+00  -2.5912583e+00  -2.5985859e+00  -2.6059410e+00  -2.6133286e+00  -2.6207346e+00  -2.6281672e+00  -2.6355711e+00  -2.6428558e+00  -2.6500942e+00  -2.6573417e+00  -2.6646045e+00  -2.6718769e+00
-1.4971172e-02  -4.6207453e-02  -7.6507744e-02  -1.1248755e-01  -1.4348028e-01  -1.7239203e-01  -2.0449788e-01  -2.4327919e-01  -2.8159583e-01  -3.1962265e-01  -3.5742331e-01  -3.9459097e-01  -4.3517845e-01  -4.8209093e-01  -5.3248927e-01  -5.8455413e-01  -6.3537836e-01  -6.7912074e-01  -7.1431095e-01  -7.5280556e-01  -7.9078181e-01  -8.2994137e-01  -8.8038830e-01  -9.5446015e-01  -1.0342867e+00  -1.0929118e+00  -1.1414655e+00  -1.1961270e+00  -1.2721733e+00  -1.3542232e+00  -1.4186564e+00  -1.4814465e+00  -1.5490130e+00  -1.5915003e+00  -1.6102216e+00  -1.6497269e+00  -1.6969080e+00  -1.7390592e+00  -1.7637360e+00  -1.7704076e+00  -1.7838137e+00  -1.7903955e+00  -1.8004203e+00  -1.8307114e+00  -1.8492712e+00  -1.8319972e+00  -1.8276339e+00  -1.8325826e+00  -1.8459499e+00  -1.8515200e+00  -1.8504545e+00  -1.8607508e+00  -1.8640768e+00  -1.8509038e+00  -1.8324351e+00  -1.8186426e+00  -1.8145724e+00  -1.7924413e+00  -1.7545721e+00  -1.7266843e+00  -1.7076351e+00  -1.6940341e+00  -1.6778543e+00  -1.6621098e+00  -1.6397411e+00  -1.6284032e+00  -1.6223977e+00  -1.6144120e+00  -1.6128258e+00  -1.6212943e+00  -1.6193746e+00  -1.6155748e+00  -1.6225100e+00  -1.6404050e+00  -1.6578377e+00  -1.6702130e+00  -1.6874201e+00  -1.7023158e+00  -1.7116768e+00  -1.7254197e+00  -1.7511735e+00  -1.7768439e+00  -1.8010914e+00  -1.8192393e+00  -1.8328989e+00  -1.8459264e+00  -1.8601763e+00  -1.8823293e+00  -1.9012503e+00  -1.9150472e+00  -1.9322861e+00  -1.9415598e+00  -1.9509876e+00  -1.9620919e+00  -1.9718875e+00  -2.0076088e+00  -2.0409059e+00  -2.0316842e+00  -2.0268874e+00  -2.0328639e+00  -2.0322453e+00  -2.0371184e+00  -2.0569550e+00  -2.0776259e+00  -2.0895308e+00  -2.1077290e+00  -2.1320953e+00  -2.1543621e+00  -2.1719193e+00  -2.1916903e+00  -2.2100699e+00  -2.2418408e+00  -2.2755598e+00  -2.3260554e+00  -2.3664839e+00  -2.3923840e+00  -2.4397730e+00  -2.4864466e+00  -2.5132030e+00  -2.5494854e+00  -2.5707328e+00  -2.5954689e+00  -2.6364842e+00  -2.6629999e+00  -2.6977527e+00  -2.7245628e+00  -2.7513375e+00  -2.7861936e+00  -2.8290507e+00  -2.8780559e+00  -2.9025847e+00  -2.9061573e+00  -2.9151335e+00  -2.9296672e+00  -2.9594920e+00  -2.9941871e+00  -3.0082019e+00  -3.0135045e+00  -3.0150459e+00  -3.0444957e+00  -3.0989246e+00  -3.1114655e+00  -3.0164957e+00  -2.8623997e+00  -2.7092212e+00  -2.5717697e+00  -2.4540040e+00  -2.3956099e+00  -2.3983031e+00  -2.4057370e+00  -2.4132113e+00  -2.4205225e+00  -2.4277890e+00  -2.4350398e+00  -2.4423120e+00  -2.4496463e+00  -2.4570317e+00  -2.4645682e+00  -2.4720856e+00  -2.4795791e+00  -2.4870490e+00  -2.4944850e+00  -2.5019071e+00  -2.5093501e+00  -2.5168013e+00  -2.5242427e+00  -2.5316563e+00  -2.5390159e+00  -2.5462226e+00  -2.5534244e+00  -2.5605917e+00  -2.5677633e+00  -2.5749660e+00  -2.5823587e+00  -2.5897545e+00  -2.5971322e+00  -2.6044799e+00  -2.6118150e+00  -2.6191448e+00  -2.6265138e+00  -2.6339213e+00  -2.6413709e+00  -2.6488224e+00  -2.6562977e+00  -2.6635555e+00  -2.6708394e+00
-8.7257952e-03  -3.8977091e-02  -7.0747446e-02  -1.0468028e-01  -1.3698874e-01  -1.6689549e-01  -2.0275054e-01  -2.3925931e-01  -2.7559292e-01  -3.1401376e-01  -3.5368367e-01  -3.9144197e-01  -4.2775654e-01  -4.7475488e-01  -5.2916753e-01  -5.8153951e-01  -6.2882309e-01  -6.7432770e-01  -7.1333638e-01  -7.5619902e-01  -7.9572745e-01  -8.3108760e-01  -8.7720722e-01  -9.5325305e-01  -1.0482762e+00  -1.1210062e+00  -1.1690740e+00  -1.2247602e+00  -1.2891530e+00  -1.3768920e+00  -1.4221388e+00  -1.4628629e+00  -1.5293562e+00  -1.5976377e+00  -1.6141107e+00  -1.6416493e+00  -1.6728541e+00  -1.6983852e+00  -1.7323119e+00  -1.7567800e+00  -1.7695790e+00  -1.7834786e+00  -1.8036219e+00  -1.8195383e+00  -1.8207608e+00  -1.8271027e+00  -1.8380656e+00  -1.8374828e+00  -1.8387059e+00  -1.8567010e+00  -1.8653479e+00  -1.8574440e+00  -1.8483441e+00  -1.8304700e+00  -1.7987796e+00  -1.7601233e+00  -1.7406849e+00  -1.7328253e+00  -1.7162334e+00  -1.7007582e+00  -1.6834359e+00  -1.6665154e+00  -1.6569028e+00  -1.6392668e+00  -1.6253278e+00  -1.6122373e+00  -1.6008852e+00  -1.5961278e+00  -1.6002213e+00  -1.6032116e+00  -1.5989544e+00  -1.5992630e+00  -1.6146439e+00  -1.6250700e+00  -1.6359526e+00  -1.6516589e+00  -1.6667531e+00  -1.6802790e+00  -1.6989065e+00  -1.7209815e+00  -1.7419064e+00  -1.7649981e+00  -1.7856876e+00  -1.8039658e+00  -1.8262888e+00  -1.8427457e+00  -1.8566275e+00  -1.8746467e+00  -1.8953339e+00  -1.9125600e+00  -1.9308259e+00  -1.9371726e+00  -1.9438458e+00  -1.9667635e+00  -1.9750816e+00  -1.9866382e+00  -2.0032165e+00  -2.0264778e+00  -2.0378323e+00  -2.0406013e+00  -2.0291369e+00  -2.0365523e+00  -2.0600792e+00  -2.0794399e+00  -2.0951145e+00  -2.1127207e+00  -2.1276172e+00  -2.1462042e+00  -2.1762585e+00  -2.2043864e+00  -2.2237745e+00  -2.2539685e+00  -2.3004842e+00  -2.3367027e+00  -2.3602434e+00  -2.4046158e+00  -2.4674001e+00  -2.5078538e+00  -2.5395001e+00  -2.5630683e+00  -2.5924100e+00  -2.6288992e+00  -2.6523136e+00  -2.6750078e+00  -2.7012460e+00  -2.7414907e+00  -2.7898229e+00  -2.8243469e+00  -2.8196485e+00  -2.8589333e+00  -2.8991760e+00  -2.9330619e+00  -2.9499918e+00  -2.9471372e+00  -2.9175274e+00  -2.9467182e+00  -2.9981967e+00  -3.0240216e+00  -3.0273560e+00  -3.0504018e+00  -3.0911729e+00  -3.1143403e+00  -3.0485243e+00  -2.9123537e+00  -2.7470320e+00  -2.5973944e+00  -2.4651520e+00  -2.4066624e+00  -2.3964352e+00  -2.4038327e+00  -2.4112719e+00  -2.4187643e+00  -2.4263346e+00  -2.4338267e+00  -2.4412642e+00  -2.4485889e+00  -2.4559019e+00  -2.4632299e+00  -2.4706063e+00  -2.4780198e+00  -2.4855739e+00  -2.4931019e+00  -2.5005480e+00  -2.5079544e+00  -2.5153402e+00  -2.5227186e+00  -2.5301074e+00  -2.5375030e+00  -2.5449062e+00  -2.5522326e+00  -2.5595164e+00  -2.5666755e+00  -2.5738304e+00  -2.5809719e+00  -2.5881357e+00  -2.5954081e+00  -2.6027781e+00  -2.6101915e+00  -2.6175797e+00  -2.6249574e+00  -2.6323331e+00  -2.6397224e+00  -2.6471381e+00  -2.6546081e+00  -2.6621277e+00  -2.6696706e+00
-7.4929797e-03  -3.6702561e-02  -6.6706666e-02  -9.9925670e-02  -1.3248018e-01  -1.6293285e-01  -1.9456601e-01  -2.2907956e-01  -2.6674744e-01  -3.0928781e-01  -3.5170976e-01  -3.8898908e-01  -4.2612994e-01  -4.7003298e-01  -5.2024959e-01  -5.7039995e-01  -6.1853816e-01  -6.6378541e-01  -7.0965072e-01  -7.5848004e-01  -8.0295870e-01  -8.3819879e-01  -8.7565492e-01  -9.5661471e-01  -1.0512568e+00  -1.1293451e+00  -1.1775783e+00  -1.2187892e+00  -1.2748685e+00  -1.3466221e+00  -1.4285641e+00  -1.4727647e+00  -1.5006875e+00  -1.5637278e+00  -1.6235120e+00  -1.6776849e+00  -1.6921333e+00  -1.7163572e+00  -1.7610011e+00  -1.7531816e+00  -1.7457740e+00  -1.7460747e+00  -1.7475670e+00  -1.7646491e+00  -1.7892745e+00  -1.8078033e+00  -1.8212024e+00  -1.8244804e+00  -1.8320260e+00  -1.8524571e+00  -1.8744506e+00  -1.8744982e+00  -1.8608276e+00  -1.8393814e+00  -1.8083232e+00  -1.7752431e+00  -1.7447173e+00  -1.7172738e+00  -1.7005699e+00  -1.6903126e+00  -1.6722411e+00  -1.6389973e+00  -1.6067514e+00  -1.5953971e+00  -1.5878350e+00  -1.5751386e+00  -1.5762779e+00  -1.5635790e+00  -1.5595255e+00  -1.5600328e+00  -1.5619206e+00  -1.5694039e+00  -1.5868705e+00  -1.5984339e+00  -1.6118469e+00  -1.6274959e+00  -1.6467939e+00  -1.6690367e+00  -1.6900331e+00  -1.7138061e+00  -1.7300185e+00  -1.7452547e+00  -1.7550639e+00  -1.7769912e+00  -1.7980559e+00  -1.8197992e+00  -1.8370390e+00  -1.8533958e+00  -1.8727542e+00  -1.8857581e+00  -1.9130316e+00  -1.9297367e+00  -1.9399361e+00  -1.9667468e+00  -1.9838627e+00  -1.9878365e+00  -1.9999560e+00  -2.0075334e+00  -2.0113531e+00  -2.0173748e+00  -2.0338133e+00  -2.0475933e+00  -2.0596022e+00  -2.0750674e+00  -2.0925452e+00  -2.1102791e+00  -2.1276427e+00  -2.1500482e+00  -2.1800894e+00  -2.2156270e+00  -2.2528107e+00  -2.2741288e+00  -2.3016890e+00  -2.3334984e+00  -2.3699397e+00  -2.4106177e+00  -2.4667388e+00  -2.5138381e+00  -2.5472398e+00  -2.5696794e+00  -2.6053056e+00  -2.6488554e+00  -2.6861053e+00  -2.7010565e+00  -2.7214357e+00  -2.7597538e+00  -2.8166848e+00  -2.8373210e+00  -2.8464946e+00  -2.8801217e+00  -2.9250454e+00  -2.9440363e+00  -2.9427653e+00  -2.9487991e+00  -2.9426437e+00  -2.9530340e+00  -2.9866984e+00  -3.0136814e+00  -3.0440559e+00  -3.0930831e+00  -3.1122576e+00  -3.1183447e+00  -3.1178947e+00  -3.0671106e+00  -2.9430361e+00  -2.8091432e+00  -2.6732744e+00  -2.5401378e+00  -2.4319366e+00  -2.4055251e+00  -2.4095626e+00  -2.4170656e+00  -2.4245874e+00  -2.4321328e+00  -2.4397127e+00  -2.4473340e+00  -2.4548217e+00  -2.4622364e+00  -2.4695702e+00  -2.4768846e+00  -2.4841714e+00  -2.4914775e+00  -2.4989223e+00  -2.5063987e+00  -2.5138406e+00  -2.5212246e+00  -2.5285558e+00  -2.5358590e+00  -2.5431792e+00  -2.5505188e+00  -2.5578700e+00  -2.5652336e+00  -2.5725554e+00  -2.5797447e+00  -2.5869008e+00  -2.5940567e+00  -2.6012293e+00  -2.6084238e+00  -2.6158139e+00  -2.6232337e+00  -2.6306912e+00  -2.6381417e+00  -2.6456009e+00  -2.6530530e+00  -2.6605295e+00  -2.6680355e+00
-3.1421311e-03  -3.3841810e-02  -6.4603502e-02  -9.4598919e-02  -1.2586755e-01  -1.5880643e-01  -1.8850530e-01  -2.1670165e-01  -2.5423581e-01  -2.9746100e-01  -3.3747362e-01  -3.7880769e-01  -4.1880180e-01  -4.6060968e-01  -5.0682286e-01  -5.6137301e-01  -6.1192133e-01  -6.5607625e-01  -6.9789525e-01  -7.4679330e-01  -7.8997659e-01  -8.3429373e-01  -8.8651295e-01  -9.6116126e-01  -1.0566060e+00  -1.1417444e+00  -1.1870423e+00  -1.2305855e+00  -1.2890512e+00  -1.3596926e+00  -1.4419161e+00  -1.4754973e+00  -1.4903735e+00  -1.5419590e+00  -1.5836894e+00  -1.6229685e+00  -1.6722116e+00  -1.7233701e+00  -1.7522166e+00  -1.7706333e+00  -1.7765450e+00  -1.7754064e+00  -1.7640993e+00  -1.7755334e+00  -1.8019544e+00  -1.8108077e+00  -1.7991332e+00  -1.7894975e+00  -1.7997569e+00  -1.8131323e+00  -1.8318328e+00  -1.8479637e+00  -1.8528338e+00  -1.8419488e+00  -1.8301792e+00  -1.8087900e+00  -1.7818042e+00  -1.7569452e+00  -1.7341949e+00  -1.7121157e+00  -1.6602000e+00  -1.6115016e+00  -1.5899735e+00  -1.5938874e+00  -1.5889679e+00  -1.5623276e+00  -1.5488635e+00  -1.5503006e+00  -1.5483391e+00  -1.5475060e+00  -1.5465327e+00  -1.5494236e+00  -1.5689233e+00  -1.5834199e+00  -1.5906926e+00  -1.6144351e+00  -1.6424888e+00  -1.6685225e+00  -1.6892153e+00  -1.7110160e+00  -1.7247637e+00  -1.7380091e+00  -1.7566065e+00  -1.7781223e+00  -1.8036527e+00  -1.8248088e+00  -1.8384676e+00  -1.8497139e+00  -1.8617896e+00  -1.8884393e+00  -1.9050516e+00  -1.9107026e+00  -1.9226200e+00  -1.9526134e+00  -1.9732526e+00  -1.9901232e+00  -2.0019412e+00  -2.0092842e+00  -2.0148215e+00  -2.0139752e+00  -2.0246076e+00  -2.0381348e+00  -2.0551368e+00  -2.0755929e+00  -2.0915825e+00  -2.1062681e+00  -2.1312895e+00  -2.1621184e+00  -2.1936954e+00  -2.2277150e+00  -2.2713654e+00  -2.3126053e+00  -2.3468371e+00  -2.3729857e+00  -2.3997281e+00  -2.4340017e+00  -2.4623056e+00  -2.5026003e+00  -2.5318758e+00  -2.5441496e+00  -2.5746426e+00  -2.6231549e+00  -2.6795340e+00  -2.7076986e+00  -2.7291798e+00  -2.7677142e+00  -2.8334472e+00  -2.8493684e+00  -2.8543208e+00  -2.8786234e+00  -2.8999802e+00  -2.8902815e+00  -2.9026905e+00  -2.9451969e+00  -2.9601717e+00  -2.9765654e+00  -3.0153486e+00  -3.0522061e+00  -3.0819338e+00  -3.1135806e+00  -3.1221296e+00  -3.1124813e+00  -3.1205344e+00  -3.1519909e+00  -3.0946288e+00  -3.0026927e+00  -2.8872348e+00  -2.7655057e+00  -2.6247443e+00  -2.4850975e+00  -2.4276614e+00  -2.4153868e+00  -2.4229557e+00  -2.4305160e+00  -2.4380691e+00  -2.4456307e+00  -2.4532066e+00  -2.4607912e+00  -2.4683266e+00  -2.4757931e+00  -2.4830820e+00  -2.4903511e+00  -2.4975833e+00  -2.5048057e+00  -2.5120145e+00  -2.5194323e+00  -2.5268212e+00  -2.5341801e+00  -2.5415003e+00  -2.5487760e+00  -2.5560436e+00  -2.5633402e+00  -2.5706710e+00  -2.5780379e+00  -2.5854043e+00  -2.5927788e+00  -2.5999645e+00  -2.6071637e+00  -2.6143746e+00  -2.6216348e+00  -2.6289672e+00  -2.6364378e+00  -2.6439744e+00  -2.6514975e+00  -2.6590326e+00  -2.6665739e+00
1.4657728e-03  -3.0880872e-02  -6.3305012e-02  -9.3382608e-02  -1.2089514e-01  -1.5079138e-01  -1.8126295e-01  -2.1364564e-01  -2.4661250e-01  -2.8954730e-01  -3.3377794e-01  -3.7601537e-01  -4.1243845e-01  -4.4962696e-01  -4.9996125e-01  -5.5538946e-01  -6.1036255e-01  -6.5508003e-01  -6.9723064e-01  -7.4581698e-01  -7.9462366e-01  -8.3242124e-01  -8.8171219e-01  -9.3990446e-01  -1.0123982e+00  -1.0896763e+00  -1.1692314e+00  -1.2329782e+00  -1.2897919e+00  -1.3476514e+00  -1.4033504e+00  -1.4410927e+00  -1.4728145e+00  -1.5367825e+00  -1.5904792e+00  -1.6198353e+00  -1.6368949e+00  -1.6619452e+00  -1.6850399e+00  -1.7087782e+00  -1.7414654e+00  -1.7785261e+00  -1.7967910e+00  -1.8134138e+00  -1.8402112e+00  -1.8405203e+00  -1.8163678e+00  -1.8065308e+00  -1.8199032e+00  -1.8232760e+00  -1.8288048e+00  -1.8421025e+00  -1.8575818e+00  -1.8642856e+00  -1.8269780e+00  -1.7965233e+00  -1.7820646e+00  -1.7741238e+00  -1.7484830e+00  -1.7125835e+00  -1.6583130e+00  -1.6053562e+00  -1.5755267e+00  -1.5555477e+00  -1.5377139e+00  -1.5097039e+00  -1.5052237e+00  -1.5120673e+00  -1.5218874e+00  -1.5292808e+00  -1.5401589e+00  -1.5437300e+00  -1.5425126e+00  -1.5536307e+00  -1.5764654e+00  -1.6026719e+00  -1.6322287e+00  -1.6555604e+00  -1.6817624e+00  -1.7048347e+00  -1.7097081e+00  -1.7307350e+00  -1.7405241e+00  -1.7599344e+00  -1.7837468e+00  -1.8138120e+00  -1.8418208e+00  -1.8556434e+00  -1.8694527e+00  -1.8867228e+00  -1.9063185e+00  -1.9253719e+00  -1.9395887e+00  -1.9522538e+00  -1.9637679e+00  -1.9781737e+00  -1.9888144e+00  -1.9851177e+00  -1.9879949e+00  -2.0036769e+00  -2.0178113e+00  -2.0270943e+00  -2.0412985e+00  -2.0684722e+00  -2.0972349e+00  -2.1202991e+00  -2.1487508e+00  -2.1815459e+00  -2.2082861e+00  -2.2371360e+00  -2.2782060e+00  -2.3136582e+00  -2.3503751e+00  -2.3796198e+00  -2.4048637e+00  -2.4678123e+00  -2.5131023e+00  -2.5301975e+00  -2.5342036e+00  -2.5649759e+00  -2.5927425e+00  -2.6253502e+00  -2.6646109e+00  -2.6883391e+00  -2.6951760e+00  -2.7483705e+00  -2.7957182e+00  -2.8184264e+00  -2.8274135e+00  -2.8403569e+00  -2.8522904e+00  -2.8628438e+00  -2.8934969e+00  -2.9401743e+00  -2.9765123e+00  -3.0242821e+00  -3.0689968e+00  -3.0898255e+00  -3.1052102e+00  -3.1280831e+00  -3.1353887e+00  -3.1296941e+00  -3.0928623e+00  -3.0130429e+00  -2.9230017e+00  -2.8406472e+00  -2.7641493e+00  -2.6814130e+00  -2.5949387e+00  -2.5266242e+00  -2.4776056e+00  -2.4379497e+00  -2.4213314e+00  -2.4288572e+00  -2.4364572e+00  -2.4440193e+00  -2.4515478e+00  -2.4590544e+00  -2.4665688e+00  -2.4740892e+00  -2.4815887e+00  -2.4889816e+00  -2.4963205e+00  -2.5035158e+00  -2.5106879e+00  -2.5178483e+00  -2.5249830e+00  -2.5322180e+00  -2.5395489e+00  -2.5469066e+00  -2.5542356e+00  -2.5615353e+00  -2.5688328e+00  -2.5761420e+00  -2.5834766e+00  -2.5908528e+00  -2.5983058e+00  -2.6057763e+00  -2.6131565e+00  -2.6204597e+00  -2.6277430e+00  -2.6350555e+00  -2.6424079e+00  -2.6499006e+00  -2.6574453e+00  -2.6650682e+00
5.0230368e-03  -2.5838851e-02  -5.7175877e-02  -8.9052313e-02  -1.1573017e-01  -1.4117793e-01  -1.7053036e-01  -2.0568556e-01  -2.4308159e-01  -2.8238076e-01  -3.2868532e-01  -3.7072794e-01  -4.1176142e-01  -4.5535513e-01  -5.0362623e-01  -5.5393144e-01  -6.0519418e-01  -6.5349483e-01  -6.9690822e-01  -7.4146927e-01  -7.8545816e-01  -8.1829495e-01  -8.6559688e-01  -9.3966836e-01  -1.0323798e+00  -1.1041195e+00  -1.1888702e+00  -1.2783223e+00  -1.3432213e+00  -1.3681284e+00  -1.3923548e+00  -1.4544986e+00  -1.4801142e+00  -1.5088279e+00  -1.5726934e+00  -1.6370417e+00  -1.6670572e+00  -1.6735914e+00  -1.6699159e+00  -1.6672777e+00  -1.6805555e+00  -1.7207017e+00  -1.7463590e+00  -1.7445492e+00  -1.7695227e+00  -1.7927441e+00  -1.8125976e+00  -1.8230900e+00  -1.8225356e+00  -1.8040612e+00  -1.8123625e+00  -1.8322601e+00  -1.8521935e+00  -1.8429872e+00  -1.8284037e+00  -1.7870315e+00  -1.7611078e+00  -1.7576113e+00  -1.7452765e+00  -1.7366549e+00  -1.7007965e+00  -1.6599465e+00  -1.6098047e+00  -1.5713132e+00  -1.5301284e+00  -1.5157880e+00  -1.5020266e+00  -1.4880476e+00  -1.4888211e+00  -1.5027635e+00  -1.5142169e+00  -1.5283438e+00  -1.5336834e+00  -1.5384407e+00  -1.5593811e+00  -1.5921557e+00  -1.6233785e+00  -1.6458359e+00  -1.6647642e+00  -1.6867156e+00  -1.7141883e+00  -1.7142208e+00  -1.7316651e+00  -1.7533326e+00  -1.7705903e+00  -1.7920852e+00  -1.8158894e+00  -1.8389493e+00  -1.8571779e+00  -1.8714838e+00  -1.8826702e+00  -1.8928045e+00  -1.9087519e+00  -1.9313766e+00  -1.9568657e+00  -1.9736198e+00  -1.9792842e+00  -1.9784776e+00  -1.9873305e+00  -2.0124869e+00  -2.0256362e+00  -2.0376544e+00  -2.0545717e+00  -2.0775870e+00  -2.1058007e+00  -2.1320475e+00  -2.1619349e+00  -2.1903132e+00  -2.2191848e+00  -2.2657976e+00  -2.3106572e+00  -2.3480457e+00  -2.3701376e+00  -2.3870056e+00  -2.4253150e+00  -2.4816561e+00  -2.5233083e+00  -2.5486114e+00  -2.5554837e+00  -2.5892136e+00  -2.6250266e+00  -2.6608850e+00  -2.6903278e+00  -2.7020402e+00  -2.7150475e+00  -2.7497416e+00  -2.7807497e+00  -2.8140806e+00  -2.8427693e+00  -2.8633571e+00  -2.8727062e+00  -2.8686349e+00  -2.8936557e+00  -2.9401014e+00  -2.9900210e+00  -3.0315247e+00  -3.0472189e+00  -3.0499510e+00  -3.0660125e+00  -3.1003932e+00  -3.1268301e+00  -3.1326278e+00  -3.0489879e+00  -2.9084259e+00  -2.7669607e+00  -2.6375629e+00  -2.5224988e+00  -2.4513900e+00  -2.3969499e+00  -2.3972532e+00  -2.4048531e+00  -2.4121092e+00  -2.4195393e+00  -2.4269999e+00  -2.4346207e+00  -2.4422479e+00  -2.4498519e+00  -2.4574041e+00  -2.4648449e+00  -2.4722609e+00  -2.4796776e+00  -2.4870960e+00  -2.4945159e+00  -2.5018936e+00  -2.5092196e+00  -2.5164010e+00  -2.5235282e+00  -2.5306499e+00  -2.5377678e+00  -2.5448778e+00  -2.5522131e+00  -2.5595579e+00  -2.5669307e+00  -2.5743066e+00  -2.5816885e+00  -2.5890657e+00  -2.5964746e+00  -2.6039170e+00  -2.6114088e+00  -2.6189613e+00  -2.6265560e+00  -2.6339647e+00  -2.6413569e+00  -2.6487314e+00  -2.6561260e+00  -2.6635367e+00
6.8185753e-03  -2.3844770e-02  -5.3093188e-02  -8.2948096e-02  -1.1000508e-01  -1.3769022e-01  -1.7054017e-01  -2.0486410e-01  -2.4000599e-01  -2.7873237e-01  -3.1952979e-01  -3.6236870e-01  -4.0380888e-01  -4.4482712e-01  -4.9273747e-01  -5.4592811e-01  -6.0010959e-01  -6.5086356e-01  -6.9446645e-01  -7.3656766e-01  -7.8193070e-01  -8.2457124e-01  -8.7206161e-01  -9.4387899e-01  -1.0431340e+00  -1.1243678e+00  -1.1839497e+00  -1.2668206e+00  -1.3534823e+00  -1.3987898e+00  -1.4196908e+00  -1.4960370e+00  -1.5266343e+00  -1.5253482e+00  -1.5563254e+00  -1.5838924e+00  -1.6412609e+00  -1.6814441e+00  -1.6837315e+00  -1.6803112e+00  -1.6975816e+00  -1.7065182e+00  -1.7104296e+00  -1.7225634e+00  -1.7413482e+00  -1.7437833e+00  -1.7611036e+00  -1.8072620e+00  -1.8134088e+00  -1.8099440e+00  -1.8119808e+00  -1.8293960e+00  -1.8232674e+00  -1.8134738e+00  -1.7949520e+00  -1.7670018e+00  -1.7377033e+00  -1.7153462e+00  -1.6987199e+00  -1.6768145e+00  -1.6546521e+00  -1.6253661e+00  -1.5875726e+00  -1.5623157e+00  -1.5351769e+00  -1.5095703e+00  -1.4873032e+00  -1.4698163e+00  -1.4699185e+00  -1.4773753e+00  -1.4925756e+00  -1.5141943e+00  -1.5279425e+00  -1.5383512e+00  -1.5476005e+00  -1.5590597e+00  -1.5836843e+00  -1.6155214e+00  -1.6416132e+00  -1.6616760e+00  -1.6844768e+00  -1.6961762e+00  -1.7165271e+00  -1.7388288e+00  -1.7568130e+00  -1.7715381e+00  -1.7920461e+00  -1.8236712e+00  -1.8467790e+00  -1.8652627e+00  -1.8822207e+00  -1.8839542e+00  -1.8950647e+00  -1.9119817e+00  -1.9332752e+00  -1.9475544e+00  -1.9629840e+00  -1.9749716e+00  -1.9877773e+00  -2.0035252e+00  -2.0157600e+00  -2.0393533e+00  -2.0659851e+00  -2.0904122e+00  -2.1178651e+00  -2.1490344e+00  -2.1754717e+00  -2.1933034e+00  -2.2257749e+00  -2.2920702e+00  -2.3660699e+00  -2.4048914e+00  -2.4031695e+00  -2.4183591e+00  -2.4434617e+00  -2.4688280e+00  -2.5103988e+00  -2.5501239e+00  -2.5653371e+00  -2.5941135e+00  -2.6184256e+00  -2.6428120e+00  -2.6745534e+00  -2.7121425e+00  -2.7400747e+00  -2.7708932e+00  -2.7929790e+00  -2.8086134e+00  -2.8314111e+00  -2.8539255e+00  -2.8826929e+00  -2.9178077e+00  -2.9491499e+00  -2.9760074e+00  -2.9924732e+00  -3.0387974e+00  -3.0763322e+00  -3.0740056e+00  -3.0779157e+00  -3.1097637e+00  -3.1420152e+00  -3.1309080e+00  -3.0371635e+00  -2.8849951e+00  -2.7351111e+00  -2.5887263e+00  -2.4557519e+00  -2.3866204e+00  -2.3878299e+00  -2.3955052e+00  -2.4031728e+00  -2.4107907e+00  -2.4182484e+00  -2.4256787e+00  -2.4330993e+00  -2.4404889e+00  -2.4478580e+00  -2.4554333e+00  -2.4629654e+00  -2.4704513e+00  -2.4778450e+00  -2.4851914e+00  -2.4925040e+00  -2.4998169e+00  -2.5071530e+00  -2.5145006e+00  -2.5218245e+00  -2.5291342e+00  -2.5362664e+00  -2.5433909e+00  -2.5505296e+00  -2.5577025e+00  -2.5649513e+00  -2.5723399e+00  -2.5798072e+00  -2.5872686e+00  -2.5947456e+00  -2.6022306e+00  -2.6097286e+00  -2.6172477e+00  -2.6248024e+00  -2.6324097e+00  -2.6400440e+00  -2.6476469e+00  -2.6551194e+00  -2.6625393e+00
1.1050986e-02  -1.8476232e-02  -4.9997687e-02  -8.0075173e-02  -1.1043203e-01  -1.4053215e-01  -1.6942436e-01  -2.0454530e-01  -2.4399950e-01  -2.8097146e-01  -3.1909736e-01  -3.6167263e-01  -3.9804252e-01  -4.3832590e-01  -4.8200996e-01  -5.3492249e-01  -5.9278182e-01  -6.4694764e-01  -6.9022590e-01  -7.2774604e-01  -7.7266090e-01  -8.2272553e-01  -8.7362521e-01  -9.3981984e-01  -1.0326809e+00  -1.1198088e+00  -1.1910792e+00  -1.2637356e+00  -1.3412319e+00  -1.4390239e+00  -1.4882375e+00  -1.5222714e+00  -1.5240869e+00  -1.5611570e+00  -1.6147895e+00  -1.6192811e+00  -1.6494330e+00  -1.6906322e+00  -1.7114356e+00  -1.7032275e+00  -1.7114253e+00  -1.7244666e+00  -1.7267590e+00  -1.7350543e+00  -1.7552642e+00  -1.7645815e+00  -1.7493333e+00  -1.7662745e+00  -1.7951539e+00  -1.7883433e+00  -1.7734960e+00  -1.7984068e+00  -1.8046043e+00  -1.8096771e+00  -1.7992232e+00  -1.7679504e+00  -1.7303594e+00  -1.7030955e+00  -1.6759833e+00  -1.6468506e+00  -1.6257813e+00  -1.6051708e+00  -1.5784125e+00  -1.5575628e+00  -1.5300810e+00  -1.5056603e+00  -1.4869357e+00  -1.4724375e+00  -1.4519966e+00  -1.4508922e+00  -1.4740558e+00  -1.5025497e+00  -1.5173473e+00  -1.5287650e+00  -1.5251328e+00  -1.5307502e+00  -1.5497062e+00  -1.5731866e+00  -1.6020174e+00  -1.6434162e+00  -1.6669387e+00  -1.6812737e+00  -1.7007375e+00  -1.7228539e+00  -1.7415078e+00  -1.7672331e+00  -1.7958128e+00  -1.8255984e+00  -1.8452330e+00  -1.8572715e+00  -1.8760309e+00  -1.8802240e+00  -1.8835858e+00  -1.8980568e+00  -1.9250842e+00  -1.9478339e+00  -1.9517312e+00  -1.9561696e+00  -1.9708277e+00  -1.9885931e+00  -2.0125799e+00  -2.0375824e+00  -2.0691588e+00  -2.1008426e+00  -2.1313848e+00  -2.1637296e+00  -2.1834414e+00  -2.2165645e+00  -2.2540950e+00  -2.3067526e+00  -2.3591078e+00  -2.3955853e+00  -2.3983063e+00  -2.4184748e+00  -2.4611350e+00  -2.4982021e+00  -2.5302113e+00  -2.5620044e+00  -2.5894034e+00  -2.6148757e+00  -2.6459246e+00  -2.6728718e+00  -2.6877283e+00  -2.7061277e+00  -2.7433509e+00  -2.7756072e+00  -2.7915837e+00  -2.7965414e+00  -2.8211599e+00  -2.8483077e+00  -2.8785886e+00  -2.9212119e+00  -2.9538869e+00  -2.9790801e+00  -2.9879887e+00  -3.0143817e+00  -3.0417106e+00  -3.0460729e+00  -3.1118715e+00  -3.1604284e+00  -3.1584578e+00  -3.1366248e+00  -3.0245147e+00  -2.8893953e+00  -2.7550163e+00  -2.6039172e+00  -2.4516406e+00  -2.3950619e+00  -2.3859147e+00  -2.3935424e+00  -2.4011971e+00  -2.4088738e+00  -2.4165674e+00  -2.4241721e+00  -2.4317066e+00  -2.4390738e+00  -2.4464320e+00  -2.4537281e+00  -2.4609855e+00  -2.4683488e+00  -2.4757700e+00  -2.4831869e+00  -2.4905449e+00  -2.4978549e+00  -2.5051309e+00  -2.5124016e+00  -2.5196890e+00  -2.5270079e+00  -2.5343807e+00  -2.5417537e+00  -2.5490587e+00  -2.5562696e+00  -2.5634711e+00  -2.5707120e+00  -2.5779815e+00  -2.5854282e+00  -2.5929296e+00  -2.6005179e+00  -2.6080915e+00  -2.6156541e+00  -2.6232266e+00  -2.6308051e+00  -2.6383951e+00  -2.6460133e+00  -2.6536637e+00  -2.6613356e+00
7.3507079e-03  -2.0342293e-02  -4.8577250e-02  -7.8802769e-02  -1.1116413e-01  -1.4206081e-01  -1.6853975e-01  -2.0220750e-01  -2.3918774e-01  -2.7846984e-01  -3.2111628e-01  -3.6105513e-01  -3.9719524e-01  -4.3312184e-01  -4.7515199e-01  -5.2221485e-01  -5.7769201e-01  -6.3197120e-01  -6.8023778e-01  -7.2419305e-01  -7.6765951e-01  -8.1904753e-01  -8.8241852e-01  -9.5187034e-01  -1.0446256e+00  -1.1397074e+00  -1.2400199e+00  -1.3517658e+00  -1.4410303e+00  -1.5178532e+00  -1.5723616e+00  -1.5570807e+00  -1.5531726e+00  -1.5728649e+00  -1.6120057e+00  -1.6408754e+00  -1.6746642e+00  -1.7213785e+00  -1.7511067e+00  -1.7369405e+00  -1.7254877e+00  -1.7248141e+00  -1.7322492e+00  -1.7402618e+00  -1.7409759e+00  -1.7447726e+00  -1.7416834e+00  -1.7482651e+00  -1.7576984e+00  -1.7673646e+00  -1.7872690e+00  -1.8104767e+00  -1.8214433e+00  -1.8167862e+00  -1.8003546e+00  -1.7695536e+00  -1.7377386e+00  -1.7160810e+00  -1.6890870e+00  -1.6580297e+00  -1.6324392e+00  -1.6146386e+00  -1.5849513e+00  -1.5466899e+00  -1.5120400e+00  -1.4884677e+00  -1.4675977e+00  -1.4515705e+00  -1.4403900e+00  -1.4491568e+00  -1.4761667e+00  -1.4774854e+00  -1.4831094e+00  -1.5017846e+00  -1.5256757e+00  -1.5366442e+00  -1.5497718e+00  -1.5737766e+00  -1.5942071e+00  -1.6128095e+00  -1.6506715e+00  -1.6771370e+00  -1.6850570e+00  -1.7082839e+00  -1.7269476e+00  -1.7507101e+00  -1.7758926e+00  -1.8048048e+00  -1.8230655e+00  -1.8384367e+00  -1.8485819e+00  -1.8562764e+00  -1.8781113e+00  -1.9058715e+00  -1.9257045e+00  -1.9407965e+00  -1.9469561e+00  -1.9620372e+00  -1.9779129e+00  -1.9896913e+00  -2.0151434e+00  -2.0480367e+00  -2.0805913e+00  -2.1078286e+00  -2.1433690e+00  -2.1820226e+00  -2.2090511e+00  -2.2354040e+00  -2.2675437e+00  -2.3062577e+00  -2.3441874e+00  -2.3800079e+00  -2.4092188e+00  -2.4353441e+00  -2.4766007e+00  -2.5149138e+00  -2.5386941e+00  -2.5566900e+00  -2.5901494e+00  -2.6304409e+00  -2.6658705e+00  -2.6829583e+00  -2.6942177e+00  -2.7251764e+00  -2.7425333e+00  -2.7636433e+00  -2.7953118e+00  -2.8252039e+00  -2.8481026e+00  -2.8884986e+00  -2.9176990e+00  -2.9450745e+00  -2.9572224e+00  -2.9469749e+00  -2.9329606e+00  -2.9558736e+00  -3.0120190e+00  -3.0790913e+00  -3.1193669e+00  -3.1397590e+00  -3.1440248e+00  -3.0908498e+00  -2.9534754e+00  -2.7984289e+00  -2.6620187e+00  -2.5513363e+00  -2.4515479e+00  -2.3967480e+00  -2.3849509e+00  -2.3916570e+00  -2.3993005e+00  -2.4069209e+00  -2.4145372e+00  -2.4221584e+00  -2.4297759e+00  -2.4373798e+00  -2.4448769e+00  -2.4522142e+00  -2.4594699e+00  -2.4666893e+00  -2.4738741e+00  -2.4810340e+00  -2.4883779e+00  -2.4957130e+00  -2.5030623e+00  -2.5103856e+00  -2.5176883e+00  -2.5249825e+00  -2.5323038e+00  -2.5396562e+00  -2.5470604e+00  -2.5545077e+00  -2.5620301e+00  -2.5693753e+00  -2.5767069e+00  -2.5840322e+00  -2.5913778e+00  -2.5987892e+00  -2.6063451e+00  -2.6139749e+00  -2.6216305e+00  -2.6292636e+00  -2.6368754e+00  -2.6444565e+00  -2.6520435e+00  -2.6596500e+00
6.8419630e-03  -2.1329569e-02  -4.9636023e-02  -8.1415367e-02  -1.1559215e-01  -1.4167857e-01  -1.6767075e-01  -1.9952371e-01  -2.3622320e-01  -2.7661529e-01  -3.1388725e-01  -3.4933069e-01  -3.8351595e-01  -4.2024578e-01  -4.6200059e-01  -5.0957273e-01  -5.6842623e-01  -6.2880670e-01  -6.7987508e-01  -7.2252312e-01  -7.6493797e-01  -8.1596066e-01  -8.7613519e-01  -9.4778334e-01  -1.0425676e+00  -1.1301962e+00  -1.1936598e+00  -1.2964213e+00  -1.4146105e+00  -1.4998267e+00  -1.5545127e+00  -1.5817738e+00  -1.6041926e+00  -1.6217862e+00  -1.6548516e+00  -1.6883026e+00  -1.7137110e+00  -1.7446616e+00  -1.7642291e+00  -1.7622517e+00  -1.7600717e+00  -1.7575758e+00  -1.7621420e+00  -1.7731538e+00  -1.7769077e+00  -1.7790689e+00  -1.7621890e+00  -1.7464634e+00  -1.7469243e+00  -1.7660493e+00  -1.7731355e+00  -1.7887627e+00  -1.8004786e+00  -1.8039619e+00  -1.7965417e+00  -1.7714016e+00  -1.7447933e+00  -1.7218084e+00  -1.6980190e+00  -1.6778774e+00  -1.6482351e+00  -1.6019075e+00  -1.5608026e+00  -1.5225784e+00  -1.4974786e+00  -1.4834199e+00  -1.4762670e+00  -1.4614242e+00  -1.4321608e+00  -1.4258858e+00  -1.4484021e+00  -1.4663021e+00  -1.4891958e+00  -1.5002846e+00  -1.5200445e+00  -1.5443942e+00  -1.5540898e+00  -1.5660601e+00  -1.5946522e+00  -1.6105815e+00  -1.6291318e+00  -1.6518205e+00  -1.6781152e+00  -1.6999490e+00  -1.7236078e+00  -1.7436570e+00  -1.7630978e+00  -1.7873485e+00  -1.8089315e+00  -1.8167215e+00  -1.8234035e+00  -1.8422652e+00  -1.8721166e+00  -1.9043471e+00  -1.9194144e+00  -1.9354691e+00  -1.9506845e+00  -1.9646605e+00  -1.9818127e+00  -2.0066342e+00  -2.0319408e+00  -2.0671793e+00  -2.0981784e+00  -2.1223508e+00  -2.1457758e+00  -2.1789306e+00  -2.2123262e+00  -2.2483689e+00  -2.2908993e+00  -2.3284168e+00  -2.3619754e+00  -2.3797737e+00  -2.4080538e+00  -2.4454624e+00  -2.4753186e+00  -2.5031116e+00  -2.5478378e+00  -2.5888256e+00  -2.6184991e+00  -2.6392425e+00  -2.6611062e+00  -2.6615858e+00  -2.6939269e+00  -2.7415603e+00  -2.7745527e+00  -2.7970216e+00  -2.8016720e+00  -2.8422087e+00  -2.8773861e+00  -2.8968392e+00  -2.9263694e+00  -2.9681800e+00  -3.0095274e+00  -3.0124193e+00  -3.0006751e+00  -3.0130727e+00  -3.0367700e+00  -3.0787322e+00  -3.1114536e+00  -3.1242827e+00  -3.1379710e+00  -3.0718453e+00  -2.9392589e+00  -2.7702345e+00  -2.6106441e+00  -2.4582369e+00  -2.3798832e+00  -2.3743206e+00  -2.3818589e+00  -2.3895903e+00  -2.3973032e+00  -2.4049844e+00  -2.4126190e+00  -2.4201975e+00  -2.4277145e+00  -2.4352351e+00  -2.4427536e+00  -2.4502540e+00  -2.4576953e+00  -2.4651091e+00  -2.4722723e+00  -2.4794246e+00  -2.4865636e+00  -2.4936953e+00  -2.5008923e+00  -2.5082100e+00  -2.5155928e+00  -2.5229604e+00  -2.5303235e+00  -2.5377198e+00  -2.5451246e+00  -2.5525583e+00  -2.5600382e+00  -2.5675649e+00  -2.5751621e+00  -2.5827571e+00  -2.5902119e+00  -2.5976265e+00  -2.6050413e+00  -2.6124699e+00  -2.6199770e+00  -2.6275316e+00  -2.6352289e+00  -2.6428849e+00  -2.6505069e+00  -2.6580897e+00
7.4875965e-03  -2.3571242e-02  -5.1233785e-02  -8.1079539e-02  -1.0901101e-01  -1.3675550e-01  -1.6543715e-01  -1.9651172e-01  -2.2901517e-01  -2.6591460e-01  -3.0503845e-01  -3.4159251e-01  -3.7776377e-01  -4.1767317e-01  -4.6148285e-01  -5.1460085e-01  -5.7689762e-01  -6.3650519e-01  -6.8572741e-01  -7.2765341e-01  -7.6516661e-01  -8.0728305e-01  -8.5860979e-01  -9.2969150e-01  -1.0229546e+00  -1.1114911e+00  -1.1676641e+00  -1.2465297e+00  -1.3538680e+00  -1.4206396e+00  -1.4920539e+00  -1.5848054e+00  -1.6338333e+00  -1.6260191e+00  -1.6576950e+00  -1.7307262e+00  -1.7852833e+00  -1.7894476e+00  -1.7877633e+00  -1.7858671e+00  -1.7863927e+00  -1.7964691e+00  -1.8213617e+00  -1.8379990e+00  -1.8248179e+00  -1.8165602e+00  -1.8023077e+00  -1.7874098e+00  -1.7776664e+00  -1.7839033e+00  -1.7836668e+00  -1.7807948e+00  -1.7889520e+00  -1.8017955e+00  -1.7900392e+00  -1.7670119e+00  -1.7516791e+00  -1.7322999e+00  -1.7179269e+00  -1.6932107e+00  -1.6561021e+00  -1.5983533e+00  -1.5443769e+00  -1.5062403e+00  -1.4842874e+00  -1.4645706e+00  -1.4538344e+00  -1.4373507e+00  -1.4211295e+00  -1.4227923e+00  -1.4353539e+00  -1.4432699e+00  -1.4715406e+00  -1.4919765e+00  -1.5122659e+00  -1.5347945e+00  -1.5428745e+00  -1.5495157e+00  -1.5789333e+00  -1.6084781e+00  -1.6281479e+00  -1.6434234e+00  -1.6662248e+00  -1.6930709e+00  -1.7206913e+00  -1.7415438e+00  -1.7597005e+00  -1.7839459e+00  -1.7989802e+00  -1.8087005e+00  -1.8212024e+00  -1.8419844e+00  -1.8647927e+00  -1.8878709e+00  -1.9176091e+00  -1.9423731e+00  -1.9593613e+00  -1.9749482e+00  -1.9857213e+00  -2.0072069e+00  -2.0319040e+00  -2.0604629e+00  -2.0943758e+00  -2.1312384e+00  -2.1670587e+00  -2.1905814e+00  -2.2258968e+00  -2.2654907e+00  -2.2943286e+00  -2.3277465e+00  -2.3501163e+00  -2.3655676e+00  -2.4075524e+00  -2.4490764e+00  -2.4832410e+00  -2.5128468e+00  -2.5616080e+00  -2.5994021e+00  -2.6317533e+00  -2.6596594e+00  -2.6750709e+00  -2.7062048e+00  -2.7284825e+00  -2.7387743e+00  -2.7453843e+00  -2.7780673e+00  -2.8217136e+00  -2.8615562e+00  -2.8782734e+00  -2.8801630e+00  -2.9020992e+00  -2.9629002e+00  -2.9926438e+00  -2.9816994e+00  -2.9849556e+00  -3.0010941e+00  -3.0233157e+00  -3.0583488e+00  -3.0841265e+00  -3.0598462e+00  -2.9784177e+00  -2.8937343e+00  -2.8175645e+00  -2.7304726e+00  -2.6252154e+00  -2.5011564e+00  -2.4129481e+00  -2.3729684e+00  -2.3802887e+00  -2.3877786e+00  -2.3952826e+00  -2.4028649e+00  -2.4105037e+00  -2.4181568e+00  -2.4257467e+00  -2.4332563e+00  -2.4406935e+00  -2.4481005e+00  -2.4554920e+00  -2.4628873e+00  -2.4702994e+00  -2.4776769e+00  -2.4849382e+00  -2.4920875e+00  -2.4992227e+00  -2.5063603e+00  -2.5135450e+00  -2.5208849e+00  -2.5282769e+00  -2.5357601e+00  -2.5432312e+00  -2.5507253e+00  -2.5582375e+00  -2.5657746e+00  -2.5733371e+00  -2.5809378e+00  -2.5885869e+00  -2.5962833e+00  -2.6038436e+00  -2.6113500e+00  -2.6187913e+00  -2.6262332e+00  -2.6336574e+00  -2.6411697e+00  -2.6487401e+00  -2.6564056e+00
6.7329016e-03  -2.2523324e-02  -5.0396730e-02  -7.9663489e-02  -1.0714790e-01  -1.3536255e-01  -1.6418754e-01  -1.9325118e-01  -2.2723174e-01  -2.6452843e-01  -3.0358707e-01  -3.4518472e-01  -3.8517751e-01  -4.2465751e-01  -4.6718933e-01  -5.1975688e-01  -5.7856511e-01  -6.3452431e-01  -6.8419185e-01  -7.2559457e-01  -7.6241094e-01  -8.0003552e-01  -8.4666585e-01  -9.1119994e-01  -9.9575172e-01  -1.0842516e+00  -1.1556574e+00  -1.2233194e+00  -1.3073755e+00  -1.3783119e+00  -1.4501310e+00  -1.5278627e+00  -1.5737212e+00  -1.6219536e+00  -1.6429402e+00  -1.6837648e+00  -1.7328665e+00  -1.7593922e+00  -1.7659279e+00  -1.7795853e+00  -1.8016763e+00  -1.8044717e+00  -1.8192563e+00  -1.8328886e+00  -1.8317329e+00  -1.8254114e+00  -1.8163148e+00  -1.8035971e+00  -1.8003719e+00  -1.7963004e+00  -1.7895468e+00  -1.7832715e+00  -1.7783037e+00  -1.8006606e+00  -1.8282350e+00  -1.8014842e+00  -1.7733548e+00  -1.7586941e+00  -1.7384430e+00  -1.6957930e+00  -1.6578509e+00  -1.6143605e+00  -1.5567625e+00  -1.5131419e+00  -1.4896891e+00  -1.4697025e+00  -1.4504357e+00  -1.4402468e+00  -1.4312372e+00  -1.4245156e+00  -1.4281822e+00  -1.4300431e+00  -1.4364633e+00  -1.4598357e+00  -1.5045799e+00  -1.5418320e+00  -1.5550367e+00  -1.5633293e+00  -1.5787144e+00  -1.5987249e+00  -1.6164144e+00  -1.6403384e+00  -1.6655074e+00  -1.6905530e+00  -1.7178624e+00  -1.7382578e+00  -1.7505582e+00  -1.7758963e+00  -1.7988051e+00  -1.8043008e+00  -1.8134869e+00  -1.8327640e+00  -1.8548605e+00  -1.8614816e+00  -1.8936760e+00  -1.9239503e+00  -1.9447908e+00  -1.9712912e+00  -1.9913931e+00  -2.0092170e+00  -2.0405137e+00  -2.0744567e+00  -2.1012547e+00  -2.1265848e+00  -2.1640133e+00  -2.2026164e+00  -2.2375018e+00  -2.2701545e+00  -2.3240392e+00  -2.3642365e+00  -2.3741530e+00  -2.3863616e+00  -2.4252070e+00  -2.4576892e+00  -2.4918084e+00  -2.5280576e+00  -2.5582194e+00  -2.5860281e+00  -2.6261651e+00  -2.6518209e+00  -2.6659500e+00  -2.6834813e+00  -2.7308001e+00  -2.7712045e+00  -2.7932128e+00  -2.7987665e+00  -2.8084202e+00  -2.8397793e+00  -2.8711350e+00  -2.8967957e+00  -2.9021307e+00  -2.9278939e+00  -2.9589337e+00  -2.9676182e+00  -2.9815211e+00  -2.9979498e+00  -3.0108846e+00  -3.0312934e+00  -3.0349574e+00  -2.9629723e+00  -2.8387813e+00  -2.7108715e+00  -2.5914766e+00  -2.4926336e+00  -2.4147278e+00  -2.3584854e+00  -2.3633674e+00  -2.3711123e+00  -2.3788398e+00  -2.3863878e+00  -2.3938607e+00  -2.4012828e+00  -2.4086769e+00  -2.4160945e+00  -2.4236610e+00  -2.4311833e+00  -2.4386709e+00  -2.4461024e+00  -2.4535058e+00  -2.4608563e+00  -2.4681883e+00  -2.4755054e+00  -2.4828216e+00  -2.4902025e+00  -2.4976782e+00  -2.5048799e+00  -2.5120806e+00  -2.5192709e+00  -2.5265278e+00  -2.5338492e+00  -2.5413439e+00  -2.5489090e+00  -2.5564833e+00  -2.5640568e+00  -2.5716803e+00  -2.5792903e+00  -2.5868932e+00  -2.5945149e+00  -2.6021698e+00  -2.6098637e+00  -2.6175702e+00  -2.6250917e+00  -2.6325308e+00  -2.6399256e+00  -2.6473333e+00  -2.6547687e+00
2.9526763e-03  -2.6085187e-02  -5.4480089e-02  -8.4531322e-02  -1.1392679e-01  -1.4035359e-01  -1.6687917e-01  -1.9380786e-01  -2.2395146e-01  -2.6096213e-01  -3.0165308e-01  -3.4336128e-01  -3.8203169e-01  -4.2076046e-01  -4.6231045e-01  -5.1306875e-01  -5.7114274e-01  -6.2534389e-01  -6.7280938e-01  -7.1194204e-01  -7.5058494e-01  -7.9020628e-01  -8.3310198e-01  -8.9501110e-01  -9.8850997e-01  -1.0814218e+00  -1.1417257e+00  -1.2144106e+00  -1.2962295e+00  -1.3554084e+00  -1.4301312e+00  -1.4894149e+00  -1.5354072e+00  -1.5873870e+00  -1.6196769e+00  -1.6466031e+00  -1.6642177e+00  -1.7140407e+00  -1.7652654e+00  -1.7886217e+00  -1.8012890e+00  -1.8057169e+00  -1.8148708e+00  -1.8375921e+00  -1.8526834e+00  -1.8473671e+00  -1.8359686e+00  -1.8385755e+00  -1.8373531e+00  -1.8335474e+00  -1.8308572e+00  -1.8184684e+00  -1.8136609e+00  -1.8316791e+00  -1.8293057e+00  -1.8116693e+00  -1.7828505e+00  -1.7588808e+00  -1.7259898e+00  -1.6830041e+00  -1.6378912e+00  -1.6000341e+00  -1.5622781e+00  -1.5320074e+00  -1.5062023e+00  -1.4665728e+00  -1.4334674e+00  -1.4203993e+00  -1.4209907e+00  -1.4135283e+00  -1.4200089e+00  -1.4280682e+00  -1.4385193e+00  -1.4587013e+00  -1.4925144e+00  -1.5148295e+00  -1.5370974e+00  -1.5584622e+00  -1.5731127e+00  -1.5933704e+00  -1.6144883e+00  -1.6293178e+00  -1.6534922e+00  -1.6811721e+00  -1.7053878e+00  -1.7223209e+00  -1.7436911e+00  -1.7713254e+00  -1.7988680e+00  -1.8087228e+00  -1.8209546e+00  -1.8319026e+00  -1.8585188e+00  -1.8877715e+00  -1.9037937e+00  -1.9311493e+00  -1.9657293e+00  -1.9794852e+00  -1.9978858e+00  -2.0289660e+00  -2.0625940e+00  -2.0935592e+00  -2.1223036e+00  -2.1472885e+00  -2.1789743e+00  -2.2139392e+00  -2.2497574e+00  -2.2848817e+00  -2.3338346e+00  -2.3780647e+00  -2.3986184e+00  -2.4221743e+00  -2.4636751e+00  -2.5024932e+00  -2.5307504e+00  -2.5472873e+00  -2.5608635e+00  -2.5917700e+00  -2.6323491e+00  -2.6515145e+00  -2.6549261e+00  -2.6659959e+00  -2.6946317e+00  -2.7282077e+00  -2.7779930e+00  -2.8096162e+00  -2.8196219e+00  -2.8542159e+00  -2.8915100e+00  -2.9111800e+00  -2.9361499e+00  -3.0071050e+00  -3.0540747e+00  -3.0453852e+00  -3.0246635e+00  -3.0370558e+00  -3.0746204e+00  -3.1152703e+00  -3.0858080e+00  -2.9669892e+00  -2.8285130e+00  -2.6762863e+00  -2.5237635e+00  -2.3921820e+00  -2.3470387e+00  -2.3539797e+00  -2.3616175e+00  -2.3692905e+00  -2.3769993e+00  -2.3847132e+00  -2.3923870e+00  -2.4000275e+00  -2.4074329e+00  -2.4148149e+00  -2.4221553e+00  -2.4294388e+00  -2.4367414e+00  -2.4441515e+00  -2.4516036e+00  -2.4589981e+00  -2.4663442e+00  -2.4736681e+00  -2.4809894e+00  -2.4883224e+00  -2.4956936e+00  -2.5030978e+00  -2.5105476e+00  -2.5180028e+00  -2.5253711e+00  -2.5327106e+00  -2.5400406e+00  -2.5474093e+00  -2.5548839e+00  -2.5624506e+00  -2.5701610e+00  -2.5778285e+00  -2.5854525e+00  -2.5930504e+00  -2.6006785e+00  -2.6083112e+00  -2.6159410e+00  -2.6235731e+00  -2.6312177e+00  -2.6388035e+00  -2.6463276e+00  -2.6537234e+00
