-1.0040246e+01  -1.0016021e+01  -9.9860106e+00  -9.9508942e+00  -9.9106719e+00  -9.8576999e+00  -9.7989365e+00  -9.7343817e+00  -9.6630863e+00  -9.5918038e+00  -9.5205342e+00  -9.4559401e+00  -9.3974278e+00  -9.3449971e+00  -9.3087956e+00  -9.2816478e+00  -9.2635536e+00  -9.2617450e+00  -9.2649234e+00  -9.2730888e+00  -9.2817505e+00  -9.2859047e+00  -9.2855514e+00  -9.2699573e+00  -9.2462028e+00  -9.2142878e+00  -9.1696988e+00  -9.1217708e+00  -9.0705036e+00  -9.0179650e+00  -8.9662727e+00  -8.9154266e+00  -8.8666716e+00  -8.8184077e+00  -8.7706350e+00  -8.7224693e+00  -8.6737269e+00  -8.6244078e+00  -8.5743645e+00  -8.5250038e+00  -8.4763257e+00  -8.4329576e+00  -8.3947421e+00  -8.3616791e+00  -8.3426202e+00  -8.3302202e+00  -8.3244791e+00  -8.3254641e+00  -8.3245744e+00  -8.3218098e+00  -8.3058205e+00  -8.2812275e+00  -8.2480310e+00  -8.2001885e+00  -8.1482279e+00  -8.0921491e+00  -8.0338497e+00  -7.9755740e+00  -7.9173218e+00  -7.8565762e+00  -7.7918222e+00  -7.7230600e+00  -7.6419497e+00  -7.5551148e+00  -7.4625554e+00  -7.3653185e+00  -7.2702931e+00  -7.1774793e+00  -7.0956926e+00  -7.0202673e+00  -6.9512033e+00  -6.8926378e+00  -6.8375153e+00  -6.7858359e+00  -6.7379567e+00  -6.6909844e+00  -6.6449191e+00  -6.5995363e+00  -6.5541669e+00  -6.5088110e+00  -6.4631056e+00  -6.4171548e+00  -6.3709585e+00  -6.3243474e+00  -6.2776341e+00  -6.2308184e+00  -6.1840297e+00  -6.1373365e+00  -6.0907388e+00  -6.0443884e+00  -5.9981414e+00  -5.9519978e+00  -5.9059836e+00  -5.8600011e+00  -5.8140504e+00  -5.7681268e+00  -5.7221995e+00  -5.6762684e+00  -5.6302692e+00  -5.5841841e+00  -5.5380131e+00  -5.4915214e+00  -5.4447927e+00  -5.3978270e+00  -5.3502981e+00  -5.3025033e+00  -5.2544427e+00  -5.2059316e+00  -5.1571432e+00  -5.1080775e+00  -5.0578931e+00  -5.0066102e+00  -4.9542290e+00  -4.8984483e+00  -4.8406723e+00  -4.7809011e+00  -4.7177215e+00  -4.6536517e+00  -4.5886917e+00  -4.5239191e+00  -4.4601008e+00  -4.3972368e+00  -4.3377572e+00  -4.2806783e+00  -4.2260002e+00  -4.1771415e+00  -4.1310906e+00  -4.0878474e+00  -4.0484835e+00  -4.0098383e+00  -3.9719118e+00  -3.9335939e+00  -3.8947800e+00  -3.8554699e+00  -3.8153423e+00  -3.7748999e+00  -3.7341425e+00  -3.6927069e+00  -3.6508932e+00  -3.6087016e+00  -3.5657576e+00  -3.5223561e+00  -3.4784973e+00  -3.4332155e+00  -3.3868991e+00  -3.3395482e+00  -3.2896806e+00  -3.2383676e+00  -3.1856093e+00  -3.1290496e+00  -3.0696179e+00  -3.0073141e+00  -2.9365497e+00  -2.8603235e+00  -2.7786354e+00  -2.6850319e+00  -2.5861441e+00  -2.4819721e+00  -2.3712680e+00  -2.2605794e+00  -2.1499062e+00  -2.0475474e+00  -1.9534329e+00  -1.8675629e+00  -1.8032268e+00  -1.7490135e+00  -1.7049228e+00  -1.6724817e+00  -1.6395302e+00  -1.6060682e+00  -1.5611095e+00  -1.5088512e+00  -1.4492933e+00  -1.3801685e+00  -1.2946327e+00  -1.1926860e+00  -9.3993186e-01  -7.3408882e-01  -5.7515689e-01  -5.4700384e-01  -5.6278106e-01  -6.2248856e-01  -7.2756144e-01  -7.7571768e-01  -7.6695728e-01  -7.8003328e-01
-1.0055938e+01  -1.0036134e+01  -1.0011111e+01  -9.9806970e+00  -9.9448910e+00  -9.8948411e+00  -9.8381384e+00  -9.7747828e+00  -9.7034654e+00  -9.6319177e+00  -9.5601400e+00  -9.4948892e+00  -9.4355054e+00  -9.3819888e+00  -9.3437041e+00  -9.3138147e+00  -9.2923206e+00  -9.2859839e+00  -9.2843323e+00  -9.2873656e+00  -9.2908306e+00  -9.2899685e+00  -9.2847792e+00  -9.2650916e+00  -9.2377991e+00  -9.2029018e+00  -9.1566525e+00  -9.1076700e+00  -9.0559546e+00  -9.0037869e+00  -8.9526366e+00  -8.9025036e+00  -8.8544527e+00  -8.8068213e+00  -8.7596095e+00  -8.7118976e+00  -8.6636075e+00  -8.6147391e+00  -8.5652019e+00  -8.5163532e+00  -8.4681931e+00  -8.4252413e+00  -8.3873486e+00  -8.3545151e+00  -8.3355878e+00  -8.3234236e+00  -8.3180224e+00  -8.3198874e+00  -8.3201447e+00  -8.3187943e+00  -8.3042365e+00  -8.2807005e+00  -8.2481861e+00  -8.1997515e+00  -8.1465475e+00  -8.0885741e+00  -8.0274381e+00  -7.9661135e+00  -7.9046003e+00  -7.8407077e+00  -7.7731025e+00  -7.7017848e+00  -7.6189833e+00  -7.5308648e+00  -7.4374294e+00  -7.3398294e+00  -7.2445356e+00  -7.1515479e+00  -7.0696637e+00  -6.9942591e+00  -6.9253341e+00  -6.8674365e+00  -6.8133469e+00  -6.7630653e+00  -6.7172654e+00  -6.6725692e+00  -6.6289765e+00  -6.5860701e+00  -6.5430134e+00  -6.4998066e+00  -6.4557514e+00  -6.4111985e+00  -6.3661480e+00  -6.3202788e+00  -6.2741706e+00  -6.2278233e+00  -6.1813332e+00  -6.1348854e+00  -6.0884798e+00  -6.0422471e+00  -5.9960881e+00  -5.9500030e+00  -5.9040034e+00  -5.8580221e+00  -5.8120591e+00  -5.7661135e+00  -5.7201675e+00  -5.6742210e+00  -5.6282322e+00  -5.5821801e+00  -5.5360648e+00  -5.4896930e+00  -5.4431179e+00  -5.3963394e+00  -5.3490443e+00  -5.3014826e+00  -5.2536545e+00  -5.2053196e+00  -5.1566668e+00  -5.1076959e+00  -5.0575689e+00  -5.0063763e+00  -4.9541181e+00  -4.8986333e+00  -4.8412560e+00  -4.7819862e+00  -4.7194497e+00  -4.6560467e+00  -4.5917772e+00  -4.5276966e+00  -4.4645658e+00  -4.4023848e+00  -4.3435171e+00  -4.2869502e+00  -4.2326841e+00  -4.1839819e+00  -4.1380289e+00  -4.0948253e+00  -4.0556245e+00  -4.0172470e+00  -3.9796928e+00  -3.9417411e+00  -3.9031154e+00  -3.8638154e+00  -3.8231995e+00  -3.7821482e+00  -3.7406615e+00  -3.6987324e+00  -3.6566825e+00  -3.6145120e+00  -3.5719282e+00  -3.5288246e+00  -3.4852012e+00  -3.4397099e+00  -3.3930381e+00  -3.3451858e+00  -3.2951250e+00  -3.2441203e+00  -3.1921717e+00  -3.1377642e+00  -3.0810081e+00  -3.0219035e+00  -2.9545538e+00  -2.8813926e+00  -2.8024200e+00  -2.7103900e+00  -2.6126589e+00  -2.5092265e+00  -2.3992248e+00  -2.2895445e+00  -2.1801855e+00  -2.0796950e+00  -1.9873284e+00  -1.9030859e+00  -1.8391580e+00  -1.7845248e+00  -1.7391864e+00  -1.7042465e+00  -1.6686332e+00  -1.6323465e+00  -1.5850865e+00  -1.5310075e+00  -1.4701095e+00  -1.4006608e+00  -1.3125996e+00  -1.2059259e+00  -9.2716061e-01  -7.1025909e-01  -5.5522140e-01  -5.3905506e-01  -5.6990777e-01  -6.4777954e-01  -7.7866434e-01  -8.4528724e-01  -8.4764826e-01  -8.6822164e-01
-1.0068677e+01  -1.0052125e+01  -1.0031159e+01  -1.0004742e+01  -9.9728756e+00  -9.9258067e+00  -9.8714485e+00  -9.8098011e+00  -9.7392241e+00  -9.6681957e+00  -9.5967159e+00  -9.5314744e+00  -9.4717385e+00  -9.4175081e+00  -9.3770914e+00  -9.3441699e+00  -9.3187437e+00  -9.3069690e+00  -9.2995440e+00  -9.2964687e+00  -9.2940998e+00  -9.2878952e+00  -9.2778549e+00  -9.2546692e+00  -9.2246075e+00  -9.1876698e+00  -9.1407197e+00  -9.0915445e+00  -9.0401440e+00  -8.9888566e+00  -8.9386524e+00  -8.8895311e+00  -8.8423414e+00  -8.7954582e+00  -8.7488813e+00  -8.7016522e+00  -8.6538308e+00  -8.6054173e+00  -8.5563564e+00  -8.5079505e+00  -8.4601994e+00  -8.4174023e+00  -8.3794607e+00  -8.3463745e+00  -8.3268801e+00  -8.3142058e+00  -8.3083515e+00  -8.3104318e+00  -8.3113410e+00  -8.3110790e+00  -8.2980226e+00  -8.2757435e+00  -8.2442417e+00  -8.1955808e+00  -8.1414369e+00  -8.0818100e+00  -8.0179227e+00  -7.9535861e+00  -7.8888001e+00  -7.8217034e+00  -7.7511730e+00  -7.6772089e+00  -7.5925922e+00  -7.5030600e+00  -7.4086123e+00  -7.3105456e+00  -7.2149126e+00  -7.1217132e+00  -7.0397639e+00  -6.9644418e+00  -6.8957467e+00  -6.8386594e+00  -6.7857745e+00  -6.7370920e+00  -6.6936375e+00  -6.6515093e+00  -6.6107073e+00  -6.5706155e+00  -6.5302008e+00  -6.4894633e+00  -6.4473310e+00  -6.4044205e+00  -6.3607321e+00  -6.3157657e+00  -6.2704000e+00  -6.2246351e+00  -6.1785215e+00  -6.1323822e+00  -6.0862174e+00  -6.0401311e+00  -5.9940825e+00  -5.9480715e+00  -5.9020920e+00  -5.8561147e+00  -5.8101397e+00  -5.7641671e+00  -5.7181959e+00  -5.6722260e+00  -5.6262388e+00  -5.5802110e+00  -5.5341425e+00  -5.4878858e+00  -5.4414612e+00  -5.3948689e+00  -5.3478117e+00  -5.3004885e+00  -5.2528992e+00  -5.2047459e+00  -5.1562332e+00  -5.1073608e+00  -5.0573050e+00  -5.0062281e+00  -4.9541302e+00  -4.8990059e+00  -4.8420887e+00  -4.7833786e+00  -4.7214683e+00  -4.6586434e+00  -4.5949039e+00  -4.5311960e+00  -4.4683847e+00  -4.4064703e+00  -4.3478012e+00  -4.2913723e+00  -4.2371836e+00  -4.1884000e+00  -4.1423443e+00  -4.0990167e+00  -4.0598731e+00  -4.0216881e+00  -3.9844618e+00  -3.9468999e+00  -3.9085127e+00  -3.8693001e+00  -3.8283082e+00  -3.7867834e+00  -3.7447257e+00  -3.7025566e+00  -3.6605927e+00  -3.6188340e+00  -3.5771163e+00  -3.5348234e+00  -3.4919553e+00  -3.4466467e+00  -3.3998849e+00  -3.3516698e+00  -3.3012293e+00  -3.2501922e+00  -3.1985583e+00  -3.1455941e+00  -3.0907753e+00  -3.0341020e+00  -2.9695234e+00  -2.8989385e+00  -2.8223472e+00  -2.7319883e+00  -2.6357185e+00  -2.5335379e+00  -2.4249891e+00  -2.3170546e+00  -2.2097344e+00  -2.1115942e+00  -2.0212944e+00  -1.9388351e+00  -1.8752055e+00  -1.8199868e+00  -1.7731791e+00  -1.7356041e+00  -1.6973370e+00  -1.6583776e+00  -1.6093976e+00  -1.5542891e+00  -1.4930521e+00  -1.4245045e+00  -1.3377408e+00  -1.2327611e+00  -9.6194728e-01  -7.6401118e-01  -6.3895285e-01  -6.1328502e-01  -6.3994360e-01  -7.1892858e-01  -8.2778617e-01  -9.0043318e-01  -9.3686962e-01  -9.8278983e-01
-1.0080092e+01  -1.0063584e+01  -1.0043660e+01  -1.0018723e+01  -9.9887714e+00  -9.9441295e+00  -9.8922577e+00  -9.8331559e+00  -9.7650034e+00  -9.6962556e+00  -9.6269124e+00  -9.5631892e+00  -9.5043531e+00  -9.4504042e+00  -9.4083086e+00  -9.3725333e+00  -9.3430783e+00  -9.3252272e+00  -9.3112155e+00  -9.3010432e+00  -9.2919159e+00  -9.2796934e+00  -9.2643757e+00  -9.2379729e+00  -9.2057044e+00  -9.1675701e+00  -9.1209821e+00  -9.0726323e+00  -9.0225207e+00  -8.9728508e+00  -8.9242105e+00  -8.8765999e+00  -8.8305873e+00  -8.7846941e+00  -8.7389205e+00  -8.6922174e+00  -8.6448430e+00  -8.5967973e+00  -8.5479649e+00  -8.4996465e+00  -8.4518420e+00  -8.4084362e+00  -8.3695034e+00  -8.3350436e+00  -8.3135397e+00  -8.2988593e+00  -8.2910023e+00  -8.2920454e+00  -8.2927231e+00  -8.2930355e+00  -8.2819186e+00  -8.2617147e+00  -8.2324238e+00  -8.1849920e+00  -8.1312508e+00  -8.0712001e+00  -8.0053527e+00  -7.9385877e+00  -7.8709051e+00  -7.8006640e+00  -7.7271394e+00  -7.6503312e+00  -7.5635126e+00  -7.4721652e+00  -7.3762890e+00  -7.2774934e+00  -7.1813859e+00  -7.0879668e+00  -7.0061453e+00  -6.9311204e+00  -6.8628920e+00  -6.8067660e+00  -6.7551722e+00  -6.7081105e+00  -6.6669491e+00  -6.6273442e+00  -6.5892960e+00  -6.5520707e+00  -6.5144111e+00  -6.4763172e+00  -6.4363976e+00  -6.3954542e+00  -6.3534870e+00  -6.3097894e+00  -6.2655062e+00  -6.2206373e+00  -6.1751323e+00  -6.1294941e+00  -6.0837226e+00  -6.0378749e+00  -5.9920113e+00  -5.9461317e+00  -5.9002122e+00  -5.8542710e+00  -5.8083083e+00  -5.7623239e+00  -5.7163392e+00  -5.6703542e+00  -5.6243671e+00  -5.5783577e+00  -5.5323261e+00  -5.4861607e+00  -5.4398585e+00  -5.3934196e+00  -5.3465638e+00  -5.2994446e+00  -5.2520622e+00  -5.2040708e+00  -5.1556908e+00  -5.1069221e+00  -5.0569649e+00  -5.0060389e+00  -4.9541442e+00  -4.8994041e+00  -4.8429305e+00  -4.7847233e+00  -4.7232245e+00  -4.6606522e+00  -4.5970062e+00  -4.5330186e+00  -4.4698114e+00  -4.4073846e+00  -4.3481467e+00  -4.2911569e+00  -4.2364152e+00  -4.1871067e+00  -4.1405935e+00  -4.0968757e+00  -4.0576776e+00  -4.0196463e+00  -3.9827817e+00  -3.9457759e+00  -3.9078380e+00  -3.8689679e+00  -3.8278935e+00  -3.7862118e+00  -3.7439227e+00  -3.7019684e+00  -3.6606394e+00  -3.6199357e+00  -3.5799250e+00  -3.5393373e+00  -3.4981728e+00  -3.4539256e+00  -3.4077980e+00  -3.3597898e+00  -3.3089965e+00  -3.2576167e+00  -3.2056503e+00  -3.1528673e+00  -3.0985560e+00  -3.0427165e+00  -2.9794296e+00  -2.9102411e+00  -2.8351510e+00  -2.7464894e+00  -2.6521244e+00  -2.5520562e+00  -2.4462197e+00  -2.3412155e+00  -2.2370435e+00  -2.1418655e+00  -2.0540019e+00  -1.9734527e+00  -1.9100211e+00  -1.8541479e+00  -1.8058330e+00  -1.7658823e+00  -1.7254619e+00  -1.6845717e+00  -1.6352355e+00  -1.5807571e+00  -1.5211365e+00  -1.4557294e+00  -1.3824143e+00  -1.3011911e+00  -1.1467148e+00  -1.0305526e+00  -9.5270447e-01  -9.2495975e-01  -9.2476039e-01  -9.5210640e-01  -9.9471592e-01  -1.0231269e+00  -1.0373392e+00  -1.0558032e+00
-1.0092953e+01  -1.0074971e+01  -1.0054516e+01  -1.0029660e+01  -1.0000403e+01  -9.9576202e+00  -9.9080091e+00  -9.8515698e+00  -9.7864040e+00  -9.7205562e+00  -9.6540263e+00  -9.5923967e+00  -9.5349738e+00  -9.4817575e+00  -9.4383907e+00  -9.4001618e+00  -9.3670708e+00  -9.3434581e+00  -9.3230873e+00  -9.3059584e+00  -9.2900174e+00  -9.2716697e+00  -9.2509152e+00  -9.2211585e+00  -9.1865977e+00  -9.1472330e+00  -9.1010707e+00  -9.0536337e+00  -9.0049219e+00  -8.9569875e+00  -8.9100247e+00  -8.8640337e+00  -8.8192913e+00  -8.7744676e+00  -8.7295624e+00  -8.6833972e+00  -8.6364436e+00  -8.5887016e+00  -8.5399455e+00  -8.4915128e+00  -8.4434036e+00  -8.3990270e+00  -8.3586774e+00  -8.3223550e+00  -8.2982206e+00  -8.2808736e+00  -8.2703139e+00  -8.2696845e+00  -8.2696415e+00  -8.2701848e+00  -8.2611491e+00  -8.2434112e+00  -8.2169711e+00  -8.1717052e+00  -8.1193050e+00  -8.0597703e+00  -7.9926934e+00  -7.9240921e+00  -7.8539664e+00  -7.7807791e+00  -7.7043579e+00  -7.6247028e+00  -7.5355609e+00  -7.4422731e+00  -7.3448394e+00  -7.2452828e+00  -7.1487335e+00  -7.0551914e+00  -6.9736577e+00  -6.8990631e+00  -6.8314075e+00  -6.7761897e+00  -6.7257367e+00  -6.6800485e+00  -6.6407792e+00  -6.6032699e+00  -6.5675205e+00  -6.5327667e+00  -6.4975424e+00  -6.4618478e+00  -6.4240817e+00  -6.3851257e+00  -6.3449796e+00  -6.3027414e+00  -6.2597384e+00  -6.2159708e+00  -6.1712430e+00  -6.1262489e+00  -6.0809886e+00  -6.0354539e+00  -5.9898361e+00  -5.9441350e+00  -5.8983063e+00  -5.8524284e+00  -5.8065014e+00  -5.7605236e+00  -5.7145412e+00  -5.6685543e+00  -5.6225743e+00  -5.5765859e+00  -5.5305891e+00  -5.4845018e+00  -5.4383021e+00  -5.3919899e+00  -5.3452982e+00  -5.2983469e+00  -5.2511360e+00  -5.2032875e+00  -5.1550319e+00  -5.1063692e+00  -5.0565263e+00  -5.0057606e+00  -4.9540720e+00  -4.8996759e+00  -4.8435770e+00  -4.7857753e+00  -4.7245401e+00  -4.6620586e+00  -4.5983307e+00  -4.5338762e+00  -4.4700845e+00  -4.4069556e+00  -4.3469710e+00  -4.2892595e+00  -4.2338211e+00  -4.1838936e+00  -4.1368540e+00  -4.0927022e+00  -4.0534492e+00  -4.0155935e+00  -3.9791352e+00  -3.9427870e+00  -3.9054285e+00  -3.8670596e+00  -3.8261001e+00  -3.7844578e+00  -3.7421327e+00  -3.7005488e+00  -3.6599871e+00  -3.6204476e+00  -3.5822416e+00  -3.5434825e+00  -3.5041704e+00  -3.4612127e+00  -3.4159609e+00  -3.3684150e+00  -3.3174249e+00  -3.2657391e+00  -3.2133576e+00  -3.1603756e+00  -3.1060808e+00  -3.0504733e+00  -2.9878529e+00  -2.9195411e+00  -2.8455380e+00  -2.7585002e+00  -2.6661124e+00  -2.5683747e+00  -2.4655680e+00  -2.3637618e+00  -2.2629561e+00  -2.1707831e+00  -2.0853431e+00  -2.0066363e+00  -1.9433462e+00  -1.8868064e+00  -1.8370171e+00  -1.7948199e+00  -1.7524209e+00  -1.7098203e+00  -1.6604691e+00  -1.6070413e+00  -1.5495370e+00  -1.4879084e+00  -1.4249978e+00  -1.3608050e+00  -1.2813070e+00  -1.2174776e+00  -1.1693168e+00  -1.1411341e+00  -1.1241651e+00  -1.1184098e+00  -1.1193577e+00  -1.1185599e+00  -1.1160165e+00  -1.1148623e+00
-1.0107259e+01  -1.0086287e+01  -1.0063726e+01  -1.0037554e+01  -1.0007771e+01  -9.9662787e+00  -9.9187028e+00  -9.8650427e+00  -9.8034258e+00  -9.7410975e+00  -9.6780577e+00  -9.6190971e+00  -9.5636005e+00  -9.5115681e+00  -9.4673379e+00  -9.4270557e+00  -9.3907213e+00  -9.3616616e+00  -9.3351593e+00  -9.3112144e+00  -9.2884045e+00  -9.2638241e+00  -9.2374735e+00  -9.2042259e+00  -9.1672875e+00  -9.1266584e+00  -9.0809857e+00  -9.0345488e+00  -8.9873476e+00  -8.9412667e+00  -8.8960950e+00  -8.8518324e+00  -8.8084536e+00  -8.7647785e+00  -8.7208071e+00  -8.6751916e+00  -8.6286325e+00  -8.5811300e+00  -8.5322981e+00  -8.4835494e+00  -8.4348841e+00  -8.3891745e+00  -8.3469826e+00  -8.3083086e+00  -8.2809229e+00  -8.2602488e+00  -8.2462864e+00  -8.2433491e+00  -8.2420959e+00  -8.2425270e+00  -8.2357140e+00  -8.2208328e+00  -8.1978836e+00  -8.1557204e+00  -8.1055994e+00  -8.0475206e+00  -7.9799449e+00  -7.9100993e+00  -7.8379841e+00  -7.7620487e+00  -7.6828286e+00  -7.6003237e+00  -7.5087372e+00  -7.4133838e+00  -7.3142633e+00  -7.2139139e+00  -7.1169551e+00  -7.0233870e+00  -6.9423011e+00  -6.8682699e+00  -6.8012934e+00  -6.7469304e+00  -6.6974680e+00  -6.6529059e+00  -6.6151280e+00  -6.5792863e+00  -6.5453806e+00  -6.5127033e+00  -6.4795947e+00  -6.4460549e+00  -6.4103834e+00  -6.3734350e+00  -6.3352098e+00  -6.2946215e+00  -6.2530967e+00  -6.2106357e+00  -6.1668534e+00  -6.1226466e+00  -6.0780153e+00  -6.0328681e+00  -5.9875568e+00  -5.9420815e+00  -5.8963744e+00  -5.8505869e+00  -5.8047190e+00  -5.7587662e+00  -5.7128019e+00  -5.6668262e+00  -5.6208604e+00  -5.5748955e+00  -5.5289316e+00  -5.4829092e+00  -5.4367919e+00  -5.3905797e+00  -5.3440150e+00  -5.2971953e+00  -5.2501206e+00  -5.2023959e+00  -5.1542563e+00  -5.1057019e+00  -5.0559894e+00  -5.0053933e+00  -4.9539137e+00  -4.8998213e+00  -4.8440283e+00  -4.7865348e+00  -4.7254151e+00  -4.6628626e+00  -4.5988774e+00  -4.5337685e+00  -4.4692038e+00  -4.4051833e+00  -4.3442744e+00  -4.2856803e+00  -4.2294011e+00  -4.1787607e+00  -4.1311258e+00  -4.0864964e+00  -4.0471878e+00  -4.0095297e+00  -3.9735222e+00  -3.9379331e+00  -3.9012841e+00  -3.8635752e+00  -3.8229277e+00  -3.7815212e+00  -3.7393558e+00  -3.6982977e+00  -3.6586357e+00  -3.6203697e+00  -3.5840662e+00  -3.5472590e+00  -3.5099483e+00  -3.4685079e+00  -3.4243736e+00  -3.3775454e+00  -3.3265146e+00  -3.2745595e+00  -3.2216802e+00  -3.1681190e+00  -3.1133497e+00  -3.0573723e+00  -2.9947933e+00  -2.9268386e+00  -2.8535080e+00  -2.7680208e+00  -2.6776826e+00  -2.5824935e+00  -2.4830341e+00  -2.3846936e+00  -2.2874722e+00  -2.1983469e+00  -2.1153181e+00  -2.0383859e+00  -1.9751806e+00  -1.9179624e+00  -1.8667313e+00  -1.8224169e+00  -1.7782143e+00  -1.7341233e+00  -1.6850982e+00  -1.6331417e+00  -1.5782537e+00  -1.5210415e+00  -1.4654912e+00  -1.4116030e+00  -1.3657238e+00  -1.3247861e+00  -1.2887897e+00  -1.2618079e+00  -1.2381576e+00  -1.2178389e+00  -1.2017114e+00  -1.1867322e+00  -1.1729014e+00  -1.1599670e+00
-1.0124999e+01  -1.0099090e+01  -1.0072216e+01  -1.0042649e+01  -1.0010388e+01  -9.9689365e+00  -9.9225692e+00  -9.8712861e+00  -9.8134500e+00  -9.7550027e+00  -9.6959442e+00  -9.6401709e+00  -9.5871567e+00  -9.5369015e+00  -9.4926629e+00  -9.4513631e+00  -9.4130023e+00  -9.3799198e+00  -9.3486426e+00  -9.3191706e+00  -9.2903326e+00  -9.2600794e+00  -9.2284110e+00  -9.1915102e+00  -9.1519200e+00  -9.1096404e+00  -9.0640279e+00  -9.0181907e+00  -8.9721289e+00  -8.9276345e+00  -8.8840509e+00  -8.8413782e+00  -8.7993396e+00  -8.7568180e+00  -8.7138135e+00  -8.6687536e+00  -8.6225485e+00  -8.5751982e+00  -8.5260878e+00  -8.4767686e+00  -8.4272407e+00  -8.3797928e+00  -8.3352800e+00  -8.2937021e+00  -8.2622677e+00  -8.2373115e+00  -8.2188333e+00  -8.2122856e+00  -8.2086235e+00  -8.2078470e+00  -8.2029052e+00  -8.1910581e+00  -8.1723054e+00  -8.1348610e+00  -8.0888323e+00  -8.0342194e+00  -7.9680053e+00  -7.8985489e+00  -7.8258502e+00  -7.7480696e+00  -7.6667503e+00  -7.5818923e+00  -7.4881129e+00  -7.3909110e+00  -7.2902867e+00  -7.1893882e+00  -7.0922996e+00  -6.9990209e+00  -6.9186522e+00  -6.8453303e+00  -6.7790553e+00  -6.7251372e+00  -6.6759996e+00  -6.6316425e+00  -6.5940004e+00  -6.5583692e+00  -6.5247488e+00  -6.4926994e+00  -6.4604531e+00  -6.4280098e+00  -6.3939076e+00  -6.3586922e+00  -6.3223635e+00  -6.2837387e+00  -6.2440768e+00  -6.2033779e+00  -6.1609825e+00  -6.1179575e+00  -6.0743030e+00  -6.0297858e+00  -5.9849787e+00  -5.9398816e+00  -5.8943899e+00  -5.8487693e+00  -5.8030198e+00  -5.7571334e+00  -5.7112229e+00  -5.6652883e+00  -5.6193574e+00  -5.5734271e+00  -5.5274973e+00  -5.4815098e+00  -5.4354294e+00  -5.3892560e+00  -5.3427347e+00  -5.2959660e+00  -5.2489498e+00  -5.2013105e+00  -5.1532768e+00  -5.1048487e+00  -5.0552962e+00  -5.0048623e+00  -4.9535468e+00  -4.8995640e+00  -4.8438103e+00  -4.7862859e+00  -4.7249157e+00  -4.6619887e+00  -4.5975051e+00  -4.5317180e+00  -4.4664560e+00  -4.4017193e+00  -4.3401877e+00  -4.2810414e+00  -4.2242805e+00  -4.1732879e+00  -4.1253814e+00  -4.0805610e+00  -4.0413444e+00  -4.0039705e+00  -3.9684393e+00  -3.9336301e+00  -3.8977843e+00  -3.8609019e+00  -3.8209118e+00  -3.7801003e+00  -3.7384675e+00  -3.6980804e+00  -3.6592699e+00  -3.6220362e+00  -3.5871111e+00  -3.5517429e+00  -3.5159318e+00  -3.4758284e+00  -3.4328268e+00  -3.3869271e+00  -3.3362518e+00  -3.2843421e+00  -3.2311978e+00  -3.1768692e+00  -3.1212365e+00  -3.0642995e+00  -3.0010516e+00  -2.9328417e+00  -2.8596700e+00  -2.7755296e+00  -2.6871083e+00  -2.5944062e+00  -2.4981016e+00  -2.4029011e+00  -2.3088048e+00  -2.2221057e+00  -2.1409044e+00  -2.0652011e+00  -2.0017830e+00  -1.9436951e+00  -1.8909374e+00  -1.8444281e+00  -1.7982575e+00  -1.7524259e+00  -1.7033221e+00  -1.6524635e+00  -1.5998503e+00  -1.5470107e+00  -1.4963237e+00  -1.4477892e+00  -1.4067892e+00  -1.3699105e+00  -1.3371531e+00  -1.3112661e+00  -1.2877288e+00  -1.2665413e+00  -1.2482171e+00  -1.2307560e+00  -1.2141581e+00  -1.1984351e+00
-1.0142655e+01  -1.0111575e+01  -1.0080071e+01  -1.0046757e+01  -1.0011635e+01  -9.9698402e+00  -9.9243324e+00  -9.8751122e+00  -9.8208452e+00  -9.7661157e+00  -9.7109238e+00  -9.6583236e+00  -9.6078451e+00  -9.5594883e+00  -9.5155608e+00  -9.4736814e+00  -9.4338503e+00  -9.3975053e+00  -9.3622539e+00  -9.3280961e+00  -9.2939694e+00  -9.2586580e+00  -9.2221619e+00  -9.1817916e+00  -9.1396011e+00  -9.0955903e+00  -9.0497891e+00  -9.0042699e+00  -8.9590327e+00  -8.9158315e+00  -8.8735807e+00  -8.8322805e+00  -8.7914592e+00  -8.7500069e+00  -8.7079236e+00  -8.6634152e+00  -8.6175643e+00  -8.5703710e+00  -8.5209897e+00  -8.4711162e+00  -8.4207503e+00  -8.3716134e+00  -8.3248251e+00  -8.2803853e+00  -8.2448521e+00  -8.2154623e+00  -8.1922159e+00  -8.1815541e+00  -8.1749069e+00  -8.1722746e+00  -8.1686612e+00  -8.1594907e+00  -8.1447630e+00  -8.1123389e+00  -8.0708889e+00  -8.0204131e+00  -7.9563865e+00  -7.8881306e+00  -7.8156455e+00  -7.7367023e+00  -7.6539030e+00  -7.5672475e+00  -7.4717096e+00  -7.3730348e+00  -7.2712231e+00  -7.1699742e+00  -7.0729008e+00  -6.9800027e+00  -6.9003353e+00  -6.8276420e+00  -6.7619228e+00  -6.7081289e+00  -6.6588901e+00  -6.6142063e+00  -6.5759730e+00  -6.5397701e+00  -6.5055976e+00  -6.4733629e+00  -6.4412432e+00  -6.4092385e+00  -6.3762882e+00  -6.3425161e+00  -6.3079220e+00  -6.2713110e+00  -6.2336300e+00  -6.1948789e+00  -6.1541119e+00  -6.1125054e+00  -6.0700595e+00  -6.0263555e+00  -5.9822062e+00  -5.9376114e+00  -5.8924072e+00  -5.8470082e+00  -5.8014145e+00  -5.7556125e+00  -5.7097706e+00  -5.6638888e+00  -5.6179975e+00  -5.5721029e+00  -5.5262049e+00  -5.4802386e+00  -5.4341745e+00  -5.3880124e+00  -5.3415001e+00  -5.2947502e+00  -5.2477625e+00  -5.2002006e+00  -5.1522759e+00  -5.1039886e+00  -5.0546056e+00  -5.0043136e+00  -4.9531126e+00  -4.8990838e+00  -4.8431678e+00  -4.7853648e+00  -4.7234914e+00  -4.6599974e+00  -4.5948830e+00  -4.5284928e+00  -4.4627160e+00  -4.3975525e+00  -4.3358448e+00  -4.2766297e+00  -4.2199073e+00  -4.1690623e+00  -4.1213229e+00  -4.0766891e+00  -4.0377396e+00  -4.0007233e+00  -3.9656399e+00  -3.9314806e+00  -3.8963315e+00  -3.8601926e+00  -3.8209040e+00  -3.7807622e+00  -3.7397672e+00  -3.7000473e+00  -3.6619659e+00  -3.6255230e+00  -3.5915250e+00  -3.5571278e+00  -3.5223314e+00  -3.4832445e+00  -3.4411852e+00  -3.3961535e+00  -3.3459750e+00  -3.2942761e+00  -3.2410567e+00  -3.1860635e+00  -3.1296137e+00  -3.0717071e+00  -3.0077389e+00  -2.9392327e+00  -2.8661887e+00  -2.7833442e+00  -2.6967203e+00  -2.6063170e+00  -2.5127547e+00  -2.4201888e+00  -2.3286195e+00  -2.2437119e+00  -2.1637685e+00  -2.0887891e+00  -2.0248534e+00  -1.9656599e+00  -1.9112086e+00  -1.8623170e+00  -1.8139079e+00  -1.7659812e+00  -1.7162451e+00  -1.6658858e+00  -1.6149033e+00  -1.5658878e+00  -1.5196405e+00  -1.4761614e+00  -1.4400520e+00  -1.4073788e+00  -1.3781417e+00  -1.3537982e+00  -1.3308512e+00  -1.3093005e+00  -1.2892639e+00  -1.2697790e+00  -1.2508459e+00  -1.2327159e+00
-1.0160226e+01  -1.0123745e+01  -1.0087289e+01  -1.0049878e+01  -1.0011513e+01  -9.9689897e+00  -9.9239925e+00  -9.8765211e+00  -9.8256114e+00  -9.7744366e+00  -9.7229967e+00  -9.6735551e+00  -9.6256657e+00  -9.5793285e+00  -9.5360317e+00  -9.4940106e+00  -9.4532652e+00  -9.4144182e+00  -9.3759934e+00  -9.3379908e+00  -9.2993148e+00  -9.2595599e+00  -9.2187262e+00  -9.1750701e+00  -9.1303307e+00  -9.0845079e+00  -9.0382694e+00  -8.9927864e+00  -8.9480591e+00  -8.9058577e+00  -8.8646844e+00  -8.8245392e+00  -8.7848123e+00  -8.7443450e+00  -8.7031374e+00  -8.6591762e+00  -8.6136799e+00  -8.5666485e+00  -8.5170040e+00  -8.4665922e+00  -8.4154129e+00  -8.3646361e+00  -8.3156179e+00  -8.2683582e+00  -8.2286758e+00  -8.1947012e+00  -8.1664343e+00  -8.1511545e+00  -8.1409464e+00  -8.1358099e+00  -8.1329819e+00  -8.1261307e+00  -8.1152563e+00  -8.0881542e+00  -8.0517693e+00  -8.0061016e+00  -7.9450884e+00  -7.8788446e+00  -7.8073702e+00  -7.7279469e+00  -7.6442866e+00  -7.5563893e+00  -7.4595275e+00  -7.3597552e+00  -7.2570724e+00  -7.1556721e+00  -7.0587587e+00  -6.9663324e+00  -6.8873504e+00  -6.8152049e+00  -6.7498960e+00  -6.6959057e+00  -6.6461395e+00  -6.6005974e+00  -6.5610456e+00  -6.5234888e+00  -6.4879270e+00  -6.4546936e+00  -6.4219650e+00  -6.3897409e+00  -6.3575252e+00  -6.3249067e+00  -6.2918854e+00  -6.2573385e+00  -6.2217563e+00  -6.1851387e+00  -6.1462415e+00  -6.1062902e+00  -6.0652847e+00  -6.0225773e+00  -5.9792393e+00  -5.9352708e+00  -5.8904262e+00  -5.8453035e+00  -5.7999029e+00  -5.7542035e+00  -5.7084451e+00  -5.6626277e+00  -5.6167808e+00  -5.5709230e+00  -5.5250545e+00  -5.4790956e+00  -5.4330271e+00  -5.3868489e+00  -5.3403112e+00  -5.2935478e+00  -5.2465587e+00  -5.1990660e+00  -5.1512537e+00  -5.1031218e+00  -5.0539176e+00  -5.0037473e+00  -4.9526110e+00  -4.8983806e+00  -4.8421008e+00  -4.7837715e+00  -4.7211421e+00  -4.6568886e+00  -4.5910110e+00  -4.5240930e+00  -4.4579837e+00  -4.3926830e+00  -4.3312457e+00  -4.2724452e+00  -4.2162814e+00  -4.1660841e+00  -4.1189505e+00  -4.0748806e+00  -4.0363735e+00  -3.9997880e+00  -3.9651241e+00  -3.9314847e+00  -3.8969258e+00  -3.8614473e+00  -3.8229043e+00  -3.7835068e+00  -3.7432549e+00  -3.7041986e+00  -3.6667236e+00  -3.6308300e+00  -3.5973079e+00  -3.5634136e+00  -3.5291471e+00  -3.4907562e+00  -3.4494486e+00  -3.4052243e+00  -3.3556841e+00  -3.3043616e+00  -3.2512567e+00  -3.1957018e+00  -3.1384813e+00  -3.0795951e+00  -3.0148552e+00  -2.9460115e+00  -2.8730640e+00  -2.7914645e+00  -2.7065185e+00  -2.6182261e+00  -2.5269933e+00  -2.4365567e+00  -2.3469162e+00  -2.2631658e+00  -2.1839104e+00  -2.1091499e+00  -2.0443918e+00  -1.9838567e+00  -1.9275446e+00  -1.8760837e+00  -1.8251652e+00  -1.7747892e+00  -1.7238672e+00  -1.6734084e+00  -1.6234127e+00  -1.5776728e+00  -1.5354418e+00  -1.4967196e+00  -1.4655122e+00  -1.4371908e+00  -1.4117554e+00  -1.3894043e+00  -1.3675247e+00  -1.3461167e+00  -1.3248518e+00  -1.3038012e+00  -1.2829648e+00  -1.2628095e+00
-1.0172826e+01  -1.0131744e+01  -1.0091134e+01  -1.0050265e+01  -1.0009136e+01  -9.9658913e+00  -9.9212041e+00  -9.8750747e+00  -9.8269298e+00  -9.7787481e+00  -9.7305295e+00  -9.6839348e+00  -9.6384650e+00  -9.5941200e+00  -9.5517527e+00  -9.5100826e+00  -9.4691095e+00  -9.4288766e+00  -9.3885709e+00  -9.3481925e+00  -9.3065521e+00  -9.2638288e+00  -9.2200225e+00  -9.1739433e+00  -9.1272162e+00  -9.0798413e+00  -9.0329059e+00  -8.9870432e+00  -8.9422531e+00  -8.9003790e+00  -8.8596503e+00  -8.8200671e+00  -8.7810247e+00  -8.7412384e+00  -8.7007081e+00  -8.6572775e+00  -8.6121905e+00  -8.5654469e+00  -8.5157990e+00  -8.4651930e+00  -8.4136289e+00  -8.3618395e+00  -8.3112999e+00  -8.2620099e+00  -8.2189600e+00  -8.1810287e+00  -8.1482159e+00  -8.1281530e+00  -8.1138254e+00  -8.1052332e+00  -8.1016885e+00  -8.0956585e+00  -8.0871433e+00  -8.0644602e+00  -8.0326780e+00  -7.9917965e+00  -7.9345772e+00  -7.8713878e+00  -7.8022283e+00  -7.7238636e+00  -7.6408759e+00  -7.5532651e+00  -7.4563683e+00  -7.3565617e+00  -7.2538452e+00  -7.1525949e+00  -7.0559178e+00  -6.9638141e+00  -6.8851050e+00  -6.8130276e+00  -6.7475818e+00  -6.6927215e+00  -6.6416591e+00  -6.5943947e+00  -6.5524371e+00  -6.5123498e+00  -6.4741327e+00  -6.4385663e+00  -6.4039315e+00  -6.3702284e+00  -6.3377065e+00  -6.3053722e+00  -6.2732258e+00  -6.2404608e+00  -6.2068954e+00  -6.1725295e+00  -6.1359087e+00  -6.0980786e+00  -6.0590394e+00  -6.0178144e+00  -5.9757093e+00  -5.9327242e+00  -5.8884532e+00  -5.8437659e+00  -5.7986622e+00  -5.7531066e+00  -5.7074576e+00  -5.6617150e+00  -5.6159107e+00  -5.5700829e+00  -5.5242318e+00  -5.4782555e+00  -5.4321517e+00  -5.3859204e+00  -5.3393150e+00  -5.2925037e+00  -5.2454864e+00  -5.1980703e+00  -5.1503897e+00  -5.1024446e+00  -5.0534191e+00  -5.0032997e+00  -4.9520864e+00  -4.8972758e+00  -4.8401413e+00  -4.7806829e+00  -4.7166431e+00  -4.6510897e+00  -4.5840225e+00  -4.5166211e+00  -4.4505048e+00  -4.3856738e+00  -4.3255872e+00  -4.2684117e+00  -4.2141474e+00  -4.1659225e+00  -4.1205698e+00  -4.0780891e+00  -4.0405350e+00  -4.0046182e+00  -3.9703388e+00  -3.9368386e+00  -3.9024791e+00  -3.8672603e+00  -3.8292786e+00  -3.7905322e+00  -3.7510211e+00  -3.7125474e+00  -3.6754321e+00  -3.6396751e+00  -3.6058610e+00  -3.5716306e+00  -3.5369838e+00  -3.4985304e+00  -3.4573894e+00  -3.4135607e+00  -3.3646091e+00  -3.3137317e+00  -3.2609284e+00  -3.2051001e+00  -3.1474248e+00  -3.0879022e+00  -3.0227915e+00  -2.9539982e+00  -2.8815225e+00  -2.8012943e+00  -2.7179046e+00  -2.6313532e+00  -2.5414995e+00  -2.4520238e+00  -2.3629262e+00  -2.2788400e+00  -2.1988950e+00  -2.1230914e+00  -2.0566804e+00  -1.9941682e+00  -1.9355548e+00  -1.8812147e+00  -1.8273735e+00  -1.7740314e+00  -1.7209700e+00  -1.6692516e+00  -1.6188762e+00  -1.5749078e+00  -1.5353183e+00  -1.5001074e+00  -1.4731507e+00  -1.4488941e+00  -1.4273374e+00  -1.4076986e+00  -1.3878095e+00  -1.3676702e+00  -1.3464433e+00  -1.3250587e+00  -1.3035162e+00  -1.2823581e+00
-1.0181693e+01  -1.0136731e+01  -1.0092727e+01  -1.0049075e+01  -1.0005774e+01  -9.9620900e+00  -9.9178405e+00  -9.8730259e+00  -9.8274250e+00  -9.7819965e+00  -9.7367404e+00  -9.6928013e+00  -9.6496101e+00  -9.6071669e+00  -9.5657389e+00  -9.5244905e+00  -9.4834216e+00  -9.4421017e+00  -9.4003105e+00  -9.3580481e+00  -9.3140799e+00  -9.2690317e+00  -9.2229036e+00  -9.1749149e+00  -9.1265912e+00  -9.0779324e+00  -9.0303105e+00  -8.9839786e+00  -8.9389366e+00  -8.8970995e+00  -8.8565213e+00  -8.8172019e+00  -8.7786118e+00  -8.7393288e+00  -8.6993529e+00  -8.6564518e+00  -8.6118294e+00  -8.5654860e+00  -8.5160553e+00  -8.4655380e+00  -8.4139341e+00  -8.3616316e+00  -8.3101527e+00  -8.2594973e+00  -8.2138621e+00  -8.1727342e+00  -8.1361135e+00  -8.1117022e+00  -8.0934105e+00  -8.0812384e+00  -8.0762249e+00  -8.0700606e+00  -8.0627457e+00  -8.0433397e+00  -8.0152195e+00  -7.9783850e+00  -7.9247908e+00  -7.8647401e+00  -7.7982327e+00  -7.7215853e+00  -7.6399834e+00  -7.5534271e+00  -7.4571590e+00  -7.3578453e+00  -7.2554859e+00  -7.1544455e+00  -7.0579405e+00  -6.9659708e+00  -6.8872479e+00  -6.8149604e+00  -6.7491085e+00  -6.6931569e+00  -6.6405856e+00  -6.5913946e+00  -6.5467984e+00  -6.5039120e+00  -6.4627353e+00  -6.4244296e+00  -6.3874302e+00  -6.3517370e+00  -6.3183383e+00  -6.2857391e+00  -6.2539393e+00  -6.2225885e+00  -6.1907887e+00  -6.1585399e+00  -6.1242810e+00  -6.0887260e+00  -6.0518750e+00  -6.0123885e+00  -5.9717515e+00  -5.9299641e+00  -5.8864101e+00  -5.8422685e+00  -5.7975394e+00  -5.7521611e+00  -5.7066419e+00  -5.6609818e+00  -5.6152182e+00  -5.5694158e+00  -5.5235747e+00  -5.4775740e+00  -5.4314277e+00  -5.3851360e+00  -5.3384578e+00  -5.2915960e+00  -5.2445504e+00  -5.1972172e+00  -5.1496765e+00  -5.1019284e+00  -5.0530726e+00  -5.0029661e+00  -4.9516088e+00  -4.8960533e+00  -4.8378460e+00  -4.7769871e+00  -4.7112119e+00  -4.6440600e+00  -4.5755313e+00  -4.5075480e+00  -4.4414466e+00  -4.3772271e+00  -4.3188572e+00  -4.2637401e+00  -4.2118759e+00  -4.1661392e+00  -4.1230333e+00  -4.0825583e+00  -4.0461988e+00  -4.0110955e+00  -3.9772482e+00  -3.9437898e+00  -3.9095085e+00  -3.8744042e+00  -3.8368758e+00  -3.7987030e+00  -3.7598856e+00  -3.7219650e+00  -3.6851547e+00  -3.6494546e+00  -3.6151763e+00  -3.5803896e+00  -3.5450946e+00  -3.5062474e+00  -3.4649382e+00  -3.4211668e+00  -3.3725305e+00  -3.3218949e+00  -3.2692599e+00  -3.2132184e+00  -3.1552472e+00  -3.0953463e+00  -3.0302466e+00  -2.9618774e+00  -2.8902386e+00  -2.8115831e+00  -2.7298276e+00  -2.6449718e+00  -2.5562023e+00  -2.4672995e+00  -2.3782635e+00  -2.2932714e+00  -2.2120877e+00  -2.1347124e+00  -2.0662885e+00  -2.0015585e+00  -1.9405226e+00  -1.8833791e+00  -1.8267079e+00  -1.7705090e+00  -1.7152398e+00  -1.6620363e+00  -1.6108985e+00  -1.5680383e+00  -1.5303845e+00  -1.4979372e+00  -1.4746452e+00  -1.4540323e+00  -1.4360985e+00  -1.4192738e+00  -1.4016103e+00  -1.3831080e+00  -1.3624101e+00  -1.3411785e+00  -1.3194132e+00  -1.2976518e+00
-1.0186826e+01  -1.0138703e+01  -1.0092066e+01  -1.0046307e+01  -1.0001427e+01  -9.9575857e+00  -9.9139016e+00  -9.8703747e+00  -9.8270969e+00  -9.7841819e+00  -9.7416296e+00  -9.7001543e+00  -9.6591009e+00  -9.6184692e+00  -9.5779902e+00  -9.5372343e+00  -9.4962015e+00  -9.4540936e+00  -9.4112123e+00  -9.3675575e+00  -9.3218981e+00  -9.2751687e+00  -9.2273693e+00  -9.1779849e+00  -9.1284555e+00  -9.0787811e+00  -9.0304832e+00  -8.9835927e+00  -8.9381094e+00  -8.8960193e+00  -8.8552974e+00  -8.8159437e+00  -8.7775736e+00  -8.7386163e+00  -8.6990719e+00  -8.6566989e+00  -8.6125968e+00  -8.5667658e+00  -8.5177730e+00  -8.4676272e+00  -8.4163284e+00  -8.3640124e+00  -8.3121764e+00  -8.2608204e+00  -8.2133821e+00  -8.1698176e+00  -8.1301270e+00  -8.1018022e+00  -8.0797017e+00  -8.0638256e+00  -8.0565910e+00  -8.0493371e+00  -8.0420637e+00  -8.0247927e+00  -7.9993938e+00  -7.9658670e+00  -7.9157292e+00  -7.8589013e+00  -7.7953835e+00  -7.7211119e+00  -7.6416092e+00  -7.5568752e+00  -7.4618998e+00  -7.3636061e+00  -7.2619944e+00  -7.1612240e+00  -7.0648268e+00  -6.9728026e+00  -6.8937790e+00  -6.8210034e+00  -6.7544761e+00  -6.6972121e+00  -6.6429191e+00  -6.5915971e+00  -6.5441295e+00  -6.4981755e+00  -6.4537349e+00  -6.4122837e+00  -6.3724610e+00  -6.3342667e+00  -6.2994207e+00  -6.2660071e+00  -6.2340260e+00  -6.2037217e+00  -6.1734363e+00  -6.1431699e+00  -6.1113585e+00  -6.0782323e+00  -6.0437913e+00  -6.0062995e+00  -5.9673659e+00  -5.9269905e+00  -5.8842967e+00  -5.8408114e+00  -5.7965345e+00  -5.7513669e+00  -5.7059981e+00  -5.6604280e+00  -5.6147032e+00  -5.5689216e+00  -5.5230832e+00  -5.4770509e+00  -5.4308551e+00  -5.3844957e+00  -5.3377396e+00  -5.2908246e+00  -5.2437506e+00  -5.1965068e+00  -5.1491143e+00  -5.1015730e+00  -5.0528781e+00  -5.0027464e+00  -4.9511781e+00  -4.8947129e+00  -4.8352149e+00  -4.7726841e+00  -4.7048486e+00  -4.6357997e+00  -4.5655375e+00  -4.4968739e+00  -4.4308090e+00  -4.3673429e+00  -4.3110558e+00  -4.2584305e+00  -4.2094669e+00  -4.1667341e+00  -4.1263412e+00  -4.0882883e+00  -4.0533651e+00  -4.0192197e+00  -3.9858522e+00  -3.9523382e+00  -3.9180138e+00  -3.8828790e+00  -3.8456959e+00  -3.8080190e+00  -3.7698483e+00  -3.7324514e+00  -3.6958915e+00  -3.6601686e+00  -3.6252537e+00  -3.5896906e+00  -3.5534794e+00  -3.5139072e+00  -3.4720949e+00  -3.4280427e+00  -3.3794483e+00  -3.3288512e+00  -3.2762513e+00  -3.2200565e+00  -3.1619485e+00  -3.1019273e+00  -3.0372206e+00  -2.9696490e+00  -2.8992124e+00  -2.8223310e+00  -2.7422875e+00  -2.6590819e+00  -2.5711018e+00  -2.4823839e+00  -2.3929281e+00  -2.3064601e+00  -2.2234883e+00  -2.1440129e+00  -2.0732160e+00  -2.0060276e+00  -1.9424479e+00  -1.8825770e+00  -1.8231683e+00  -1.7642218e+00  -1.7066766e+00  -1.6517626e+00  -1.5994797e+00  -1.5570641e+00  -1.5206405e+00  -1.4902090e+00  -1.4699956e+00  -1.4526055e+00  -1.4380386e+00  -1.4241299e+00  -1.4089270e+00  -1.3924301e+00  -1.3727522e+00  -1.3521608e+00  -1.3306558e+00  -1.3086906e+00
-1.0185353e+01  -1.0135503e+01  -1.0087701e+01  -1.0041161e+01  -9.9958846e+00  -9.9525589e+00  -9.9098354e+00  -9.8677139e+00  -9.8264847e+00  -9.7857349e+00  -9.7454646e+00  -9.7060790e+00  -9.6668532e+00  -9.6277873e+00  -9.5881538e+00  -9.5478686e+00  -9.5069316e+00  -9.4643172e+00  -9.4207656e+00  -9.3762767e+00  -9.3297395e+00  -9.2821996e+00  -9.2336572e+00  -9.1837010e+00  -9.1336430e+00  -9.0834834e+00  -9.0346616e+00  -8.9871957e+00  -8.9410855e+00  -8.8983376e+00  -8.8570342e+00  -8.8171752e+00  -8.7786385e+00  -8.7397205e+00  -8.7004210e+00  -8.6586346e+00  -8.6152288e+00  -8.5702035e+00  -8.5221571e+00  -8.4730106e+00  -8.4227638e+00  -8.3714981e+00  -8.3205636e+00  -8.2699604e+00  -8.2225191e+00  -8.1783581e+00  -8.1374772e+00  -8.1066365e+00  -8.0815550e+00  -8.0622330e+00  -8.0515270e+00  -8.0413198e+00  -8.0316114e+00  -8.0136446e+00  -7.9884366e+00  -7.9559873e+00  -7.9082118e+00  -7.8540745e+00  -7.7935753e+00  -7.7224804e+00  -7.6460388e+00  -7.5642506e+00  -7.4715951e+00  -7.3751475e+00  -7.2749077e+00  -7.1745267e+00  -7.0781742e+00  -6.9858502e+00  -6.9061827e+00  -6.8326344e+00  -6.7652055e+00  -6.7065945e+00  -6.6506188e+00  -6.5972784e+00  -6.5470794e+00  -6.4981335e+00  -6.4504409e+00  -6.4055635e+00  -6.3624342e+00  -6.3210529e+00  -6.2837053e+00  -6.2483420e+00  -6.2149630e+00  -6.1846250e+00  -6.1549671e+00  -6.1259894e+00  -6.0964029e+00  -6.0656740e+00  -6.0338028e+00  -5.9986683e+00  -5.9618173e+00  -5.9232499e+00  -5.8817418e+00  -5.8391844e+00  -5.7955777e+00  -5.7507345e+00  -5.7055951e+00  -5.6601594e+00  -5.6144761e+00  -5.5687150e+00  -5.5228763e+00  -5.4768135e+00  -5.4305745e+00  -5.3841594e+00  -5.3373425e+00  -5.2903905e+00  -5.2433036e+00  -5.1961557e+00  -5.1489107e+00  -5.1015689e+00  -5.0530104e+00  -5.0028121e+00  -4.9509740e+00  -4.8934734e+00  -4.8325078e+00  -4.7680772e+00  -4.6978541e+00  -4.6265642e+00  -4.5542075e+00  -4.4845720e+00  -4.4183317e+00  -4.3554866e+00  -4.3013117e+00  -4.2512559e+00  -4.2053191e+00  -4.1657369e+00  -4.1282055e+00  -4.0927248e+00  -4.0594076e+00  -4.0264015e+00  -3.9937067e+00  -3.9603181e+00  -3.9260993e+00  -3.8910501e+00  -3.8542392e+00  -3.8170529e+00  -3.7794913e+00  -3.7425714e+00  -3.7062280e+00  -3.6704612e+00  -3.6348591e+00  -3.5983857e+00  -3.5610410e+00  -3.5202199e+00  -3.4772250e+00  -3.4320560e+00  -3.3825747e+00  -3.3312236e+00  -3.2780027e+00  -3.2215902e+00  -3.1636021e+00  -3.1040384e+00  -3.0406846e+00  -2.9748584e+00  -2.9065598e+00  -2.8320682e+00  -2.7541637e+00  -2.6728463e+00  -2.5856111e+00  -2.4969352e+00  -2.4068184e+00  -2.3184849e+00  -2.2333113e+00  -2.1512974e+00  -2.0778704e+00  -2.0081835e+00  -1.9422367e+00  -1.8803243e+00  -1.8189897e+00  -1.7582330e+00  -1.6990825e+00  -1.6427626e+00  -1.5892733e+00  -1.5464174e+00  -1.5100957e+00  -1.4803083e+00  -1.4618444e+00  -1.4465704e+00  -1.4344863e+00  -1.4231710e+00  -1.4103294e+00  -1.3959616e+00  -1.3776592e+00  -1.3580748e+00  -1.3372085e+00  -1.3153207e+00
-1.0181926e+01  -1.0130878e+01  -1.0082408e+01  -1.0035533e+01  -9.9902554e+00  -9.9476704e+00  -9.9060374e+00  -9.8653564e+00  -9.8260589e+00  -9.7873207e+00  -9.7491417e+00  -9.7116612e+00  -9.6741070e+00  -9.6364791e+00  -9.5976427e+00  -9.5578200e+00  -9.5170110e+00  -9.4739914e+00  -9.4298977e+00  -9.3847300e+00  -9.3375104e+00  -9.2893652e+00  -9.2402945e+00  -9.1899665e+00  -9.1395542e+00  -9.0890576e+00  -9.0397806e+00  -8.9917652e+00  -8.9450115e+00  -8.9015173e+00  -8.8595301e+00  -8.8190498e+00  -8.7802595e+00  -8.7413331e+00  -8.7022708e+00  -8.6611617e+00  -8.6185840e+00  -8.5745376e+00  -8.5276717e+00  -8.4797894e+00  -8.4308907e+00  -8.3810627e+00  -8.3314801e+00  -8.2821430e+00  -8.2353400e+00  -8.1912437e+00  -8.1498540e+00  -8.1170288e+00  -8.0892960e+00  -8.0666558e+00  -8.0520419e+00  -8.0381967e+00  -8.0251201e+00  -8.0053266e+00  -7.9792600e+00  -7.9469204e+00  -7.9009180e+00  -7.8490792e+00  -7.7914041e+00  -7.7235776e+00  -7.6503664e+00  -7.5717705e+00  -7.4817291e+00  -7.3874055e+00  -7.2887996e+00  -7.1889901e+00  -7.0928228e+00  -7.0002977e+00  -6.9200447e+00  -6.8457948e+00  -6.7775480e+00  -6.7177476e+00  -6.6602863e+00  -6.6051639e+00  -6.5525078e+00  -6.5008231e+00  -6.4501098e+00  -6.4019003e+00  -6.3554544e+00  -6.3107721e+00  -6.2705819e+00  -6.2328413e+00  -6.1975501e+00  -6.1666031e+00  -6.1370304e+00  -6.1088320e+00  -6.0811248e+00  -6.0525461e+00  -6.0230959e+00  -5.9903362e+00  -5.9556362e+00  -5.9189962e+00  -5.8788236e+00  -5.8373334e+00  -5.7945255e+00  -5.7500905e+00  -5.7052415e+00  -5.6599785e+00  -5.6143489e+00  -5.5686162e+00  -5.5227804e+00  -5.4766954e+00  -5.4304253e+00  -5.3839703e+00  -5.3371110e+00  -5.2901368e+00  -5.2430476e+00  -5.1959921e+00  -5.1488857e+00  -5.1017283e+00  -5.0532986e+00  -5.0030457e+00  -4.9509697e+00  -4.8925299e+00  -4.8302229e+00  -4.7640486e+00  -4.6916073e+00  -4.6182169e+00  -4.5438774e+00  -4.4732617e+00  -4.4067592e+00  -4.3443699e+00  -4.2919866e+00  -4.2441198e+00  -4.2007694e+00  -4.1638618e+00  -4.1287583e+00  -4.0954590e+00  -4.0635529e+00  -4.0316081e+00  -3.9996246e+00  -3.9665674e+00  -3.9326749e+00  -3.8979471e+00  -3.8616490e+00  -3.8250246e+00  -3.7880739e+00  -3.7515484e+00  -3.7153396e+00  -3.6794473e+00  -3.6431149e+00  -3.6056786e+00  -3.5671386e+00  -3.5248866e+00  -3.4804447e+00  -3.4338128e+00  -3.3830200e+00  -3.3305470e+00  -3.2763938e+00  -3.2197361e+00  -3.1619952e+00  -3.1031710e+00  -3.0416206e+00  -2.9779765e+00  -2.9122388e+00  -2.8404266e+00  -2.7648969e+00  -2.6856499e+00  -2.5993232e+00  -2.5108660e+00  -2.4202784e+00  -2.3302686e+00  -2.2430650e+00  -2.1586675e+00  -2.0827665e+00  -2.0107887e+00  -1.9427342e+00  -1.8792137e+00  -1.8164425e+00  -1.7544204e+00  -1.6941242e+00  -1.6367084e+00  -1.5821727e+00  -1.5386673e+00  -1.5021117e+00  -1.4725058e+00  -1.4552758e+00  -1.4416490e+00  -1.4316254e+00  -1.4226180e+00  -1.4119077e+00  -1.3994944e+00  -1.3824542e+00  -1.3637709e+00  -1.3434444e+00  -1.3215156e+00
-1.0176545e+01  -1.0124828e+01  -1.0076187e+01  -1.0029424e+01  -9.9845390e+00  -9.9429200e+00  -9.9025078e+00  -9.8633022e+00  -9.8258197e+00  -9.7889392e+00  -9.7526608e+00  -9.7169011e+00  -9.6808624e+00  -9.6445446e+00  -9.6064568e+00  -9.5670884e+00  -9.5264397e+00  -9.4831161e+00  -9.4386088e+00  -9.3929176e+00  -9.3452110e+00  -9.2966655e+00  -9.2472811e+00  -9.1967815e+00  -9.1461891e+00  -9.0955038e+00  -9.0458403e+00  -8.9973014e+00  -8.9498873e+00  -8.9055586e+00  -8.8627853e+00  -8.8215675e+00  -8.7824364e+00  -8.7434543e+00  -8.7046213e+00  -8.6642803e+00  -8.6226625e+00  -8.5797682e+00  -8.5343167e+00  -8.4879637e+00  -8.4407091e+00  -8.3927062e+00  -8.3449259e+00  -8.2973680e+00  -8.2518447e+00  -8.2084745e+00  -8.1672573e+00  -8.1329791e+00  -8.1029247e+00  -8.0770941e+00  -8.0581357e+00  -8.0399675e+00  -8.0225897e+00  -7.9998385e+00  -7.9718641e+00  -7.9386663e+00  -7.8938478e+00  -7.8439156e+00  -7.7888699e+00  -7.7244037e+00  -7.6545920e+00  -7.5794349e+00  -7.4923018e+00  -7.4003801e+00  -7.3036699e+00  -7.2046140e+00  -7.1087724e+00  -7.0161452e+00  -6.9353652e+00  -6.8604846e+00  -6.7915034e+00  -6.7306714e+00  -6.6719214e+00  -6.6152534e+00  -6.5604150e+00  -6.5062443e+00  -6.4527416e+00  -6.4012941e+00  -6.3515217e+00  -6.3034244e+00  -6.2600506e+00  -6.2195050e+00  -6.1817875e+00  -6.1496560e+00  -6.1196260e+00  -6.0916977e+00  -6.0655244e+00  -6.0388487e+00  -6.0116706e+00  -5.9813031e+00  -5.9488227e+00  -5.9142294e+00  -5.8755420e+00  -5.8352582e+00  -5.7933779e+00  -5.7494348e+00  -5.7049373e+00  -5.6598854e+00  -5.6143217e+00  -5.5686251e+00  -5.5227957e+00  -5.4766967e+00  -5.4304075e+00  -5.3839283e+00  -5.3370454e+00  -5.2900634e+00  -5.2429824e+00  -5.1960162e+00  -5.1490391e+00  -5.1020513e+00  -5.0537426e+00  -5.0034472e+00  -4.9511652e+00  -4.8918826e+00  -4.8283602e+00  -4.7605982e+00  -4.6861080e+00  -4.6107577e+00  -4.5345473e+00  -4.4629429e+00  -4.3960915e+00  -4.3339930e+00  -4.2830804e+00  -4.2370221e+00  -4.1958179e+00  -4.1611087e+00  -4.1279996e+00  -4.0964909e+00  -4.0658010e+00  -4.0348393e+00  -4.0036058e+00  -3.9710859e+00  -3.9377406e+00  -3.9035699e+00  -3.8679251e+00  -3.8319338e+00  -3.7955961e+00  -3.7593826e+00  -3.7232262e+00  -3.6871271e+00  -3.6500209e+00  -3.6115693e+00  -3.5717723e+00  -3.5279073e+00  -3.4817541e+00  -3.4333129e+00  -3.3807842e+00  -3.3268214e+00  -3.2714245e+00  -3.2144943e+00  -3.1571279e+00  -3.0993252e+00  -3.0400286e+00  -2.9790033e+00  -2.9162495e+00  -2.8474061e+00  -2.7744872e+00  -2.6974926e+00  -2.6122379e+00  -2.5241764e+00  -2.4333081e+00  -2.3418110e+00  -2.2527494e+00  -2.1661232e+00  -2.0879042e+00  -2.0138433e+00  -1.9439403e+00  -1.8792453e+00  -1.8155266e+00  -1.7527840e+00  -1.6918018e+00  -1.6335998e+00  -1.5781779e+00  -1.5338138e+00  -1.4966883e+00  -1.4668015e+00  -1.4502898e+00  -1.4378413e+00  -1.4294558e+00  -1.4224711e+00  -1.4136620e+00  -1.4030285e+00  -1.3871373e+00  -1.3692489e+00  -1.3493634e+00  -1.3272753e+00
-1.0169727e+01  -1.0117973e+01  -1.0069678e+01  -1.0023469e+01  -9.9793479e+00  -9.9388707e+00  -9.8997375e+00  -9.8619480e+00  -9.8260091e+00  -9.7906600e+00  -9.7559007e+00  -9.7214966e+00  -9.6866731e+00  -9.6514301e+00  -9.6140416e+00  -9.5751599e+00  -9.5347850e+00  -9.4913440e+00  -9.4465900e+00  -9.4005229e+00  -9.3523695e+00  -9.3034220e+00  -9.2536802e+00  -9.2029640e+00  -9.1521830e+00  -9.1013371e+00  -9.0514027e+00  -9.0024735e+00  -8.9545495e+00  -8.9095223e+00  -8.8660867e+00  -8.8242429e+00  -8.7849130e+00  -8.7460612e+00  -8.7076877e+00  -8.6684427e+00  -8.6281335e+00  -8.5867599e+00  -8.5430585e+00  -8.4985342e+00  -8.4531870e+00  -8.4072212e+00  -8.3614558e+00  -8.3158909e+00  -8.2718935e+00  -8.2295106e+00  -8.1887423e+00  -8.1532285e+00  -8.1209642e+00  -8.0919491e+00  -8.0682838e+00  -8.0452375e+00  -8.0228103e+00  -7.9961179e+00  -7.9652510e+00  -7.9302095e+00  -7.8857724e+00  -7.8370674e+00  -7.7840945e+00  -7.7226746e+00  -7.6560742e+00  -7.5842932e+00  -7.5002962e+00  -7.4111443e+00  -7.3168373e+00  -7.2191958e+00  -7.1243171e+00  -7.0322013e+00  -6.9513339e+00  -6.8761983e+00  -6.8067943e+00  -6.7452746e+00  -6.6856605e+00  -6.6279519e+00  -6.5716015e+00  -6.5156448e+00  -6.4600817e+00  -6.4060177e+00  -6.3534044e+00  -6.3022418e+00  -6.2556372e+00  -6.2120120e+00  -6.1713661e+00  -6.1371524e+00  -6.1056666e+00  -6.0769087e+00  -6.0512271e+00  -6.0255556e+00  -5.9998940e+00  -5.9715561e+00  -5.9411036e+00  -5.9085366e+00  -5.8715173e+00  -5.8326467e+00  -5.7919248e+00  -5.7486533e+00  -5.7046460e+00  -5.6599029e+00  -5.6144401e+00  -5.5688034e+00  -5.5229928e+00  -5.4769007e+00  -5.4306229e+00  -5.3841594e+00  -5.3372991e+00  -5.2903476e+00  -5.2433047e+00  -5.1964156e+00  -5.1495394e+00  -5.1026759e+00  -5.0544834e+00  -5.0042337e+00  -4.9519269e+00  -4.8923181e+00  -4.8282868e+00  -4.7598330e+00  -4.6844203e+00  -4.6081898e+00  -4.5311418e+00  -4.4591169e+00  -4.3921198e+00  -4.3301506e+00  -4.2797700e+00  -4.2342864e+00  -4.1936998e+00  -4.1594362e+00  -4.1266710e+00  -4.0954043e+00  -4.0649380e+00  -4.0343090e+00  -4.0035172e+00  -3.9717644e+00  -3.9392898e+00  -3.9060935e+00  -3.8713424e+00  -3.8360472e+00  -3.8002081e+00  -3.7639163e+00  -3.7274028e+00  -3.6906675e+00  -3.6525039e+00  -3.6128310e+00  -3.5716488e+00  -3.5260626e+00  -3.4780427e+00  -3.4275891e+00  -3.3730718e+00  -3.3174350e+00  -3.2606787e+00  -3.2036528e+00  -3.1469688e+00  -3.0906267e+00  -3.0340839e+00  -2.9761085e+00  -2.9167004e+00  -2.8510129e+00  -2.7808847e+00  -2.7063160e+00  -2.6225088e+00  -2.5353695e+00  -2.4448981e+00  -2.3527950e+00  -2.2627509e+00  -2.1747658e+00  -2.0949272e+00  -2.0194093e+00  -1.9482120e+00  -1.8828948e+00  -1.8188200e+00  -1.7559876e+00  -1.6949327e+00  -1.6364495e+00  -1.5805383e+00  -1.5353656e+00  -1.4975637e+00  -1.4671325e+00  -1.4508863e+00  -1.4391200e+00  -1.4318335e+00  -1.4263045e+00  -1.4188351e+00  -1.4094253e+00  -1.3941513e+00  -1.3765239e+00  -1.3565431e+00  -1.3337167e+00
-1.0162857e+01  -1.0111229e+01  -1.0063387e+01  -1.0017818e+01  -9.9745229e+00  -9.9351900e+00  -9.8972986e+00  -9.8608487e+00  -9.8263052e+00  -9.7923221e+00  -9.7588994e+00  -9.7256852e+00  -9.6919408e+00  -9.6576662e+00  -9.6209493e+00  -9.5825573e+00  -9.5424900e+00  -9.4989741e+00  -9.4539872e+00  -9.4075295e+00  -9.3588241e+00  -9.3093395e+00  -9.2590758e+00  -9.2080027e+00  -9.1569480e+00  -9.1059116e+00  -9.0558157e+00  -9.0066580e+00  -8.9584386e+00  -8.9129688e+00  -8.8691247e+00  -8.8269062e+00  -8.7876116e+00  -8.7491171e+00  -8.7114226e+00  -8.6734670e+00  -8.6346306e+00  -8.5949135e+00  -8.5529967e+00  -8.5102719e+00  -8.4667390e+00  -8.4225883e+00  -8.3785661e+00  -8.3346723e+00  -8.2918373e+00  -8.2500970e+00  -8.2094514e+00  -8.1724988e+00  -8.1379087e+00  -8.1056811e+00  -8.0774367e+00  -8.0496670e+00  -8.0223722e+00  -7.9918476e+00  -7.9581202e+00  -7.9211903e+00  -7.8769375e+00  -7.8292208e+00  -7.7780399e+00  -7.7193946e+00  -7.6557888e+00  -7.5872227e+00  -7.5063971e+00  -7.4201601e+00  -7.3285117e+00  -7.2326701e+00  -7.1391226e+00  -7.0478694e+00  -6.9671046e+00  -6.8918267e+00  -6.8220358e+00  -6.7598277e+00  -6.6993996e+00  -6.6407514e+00  -6.5831550e+00  -6.5257509e+00  -6.4685389e+00  -6.4123430e+00  -6.3573609e+00  -6.3035925e+00  -6.2540814e+00  -6.2075833e+00  -6.1640984e+00  -6.1276088e+00  -6.0943524e+00  -6.0643291e+00  -6.0385911e+00  -6.0133981e+00  -5.9887501e+00  -5.9620963e+00  -5.9334193e+00  -5.9027192e+00  -5.8673486e+00  -5.8299059e+00  -5.7903913e+00  -5.7478479e+00  -5.7043772e+00  -5.6599793e+00  -5.6146323e+00  -5.5690659e+00  -5.5232801e+00  -5.4772035e+00  -5.4309495e+00  -5.3845183e+00  -5.3377031e+00  -5.2908018e+00  -5.2438145e+00  -5.1969970e+00  -5.1502057e+00  -5.1034404e+00  -5.0553650e+00  -5.0052221e+00  -4.9530117e+00  -4.8934281e+00  -4.8293787e+00  -4.7608635e+00  -4.6853602e+00  -4.6090800e+00  -4.5320228e+00  -4.4601430e+00  -4.3933402e+00  -4.3316143e+00  -4.2813855e+00  -4.2359065e+00  -4.1951774e+00  -4.1604284e+00  -4.1271006e+00  -4.0951940e+00  -4.0642823e+00  -4.0334558e+00  -4.0027146e+00  -3.9715699e+00  -3.9398636e+00  -3.9075958e+00  -3.8736698e+00  -3.8389507e+00  -3.8034385e+00  -3.7668060e+00  -3.7296726e+00  -3.6920384e+00  -3.6526537e+00  -3.6116692e+00  -3.5690848e+00  -3.5218923e+00  -3.4721661e+00  -3.4199061e+00  -3.3636557e+00  -3.3066022e+00  -3.2487456e+00  -3.1918236e+00  -3.1359590e+00  -3.0811516e+00  -3.0272841e+00  -2.9722240e+00  -2.9159714e+00  -2.8532390e+00  -2.7857550e+00  -2.7135197e+00  -2.6312737e+00  -2.5452897e+00  -2.4555678e+00  -2.3633808e+00  -2.2728827e+00  -2.1840734e+00  -2.1029995e+00  -2.0262978e+00  -1.9539684e+00  -1.8880350e+00  -1.8236072e+00  -1.7606850e+00  -1.6996689e+00  -1.6410792e+00  -1.5849160e+00  -1.5392101e+00  -1.5009637e+00  -1.4701767e+00  -1.4542067e+00  -1.4430412e+00  -1.4366800e+00  -1.4323138e+00  -1.4258752e+00  -1.4173641e+00  -1.4023961e+00  -1.3847151e+00  -1.3643211e+00  -1.3403843e+00
-1.0155936e+01  -1.0104596e+01  -1.0057316e+01  -1.0012472e+01  -9.9700642e+00  -9.9318778e+00  -9.8951912e+00  -9.8600044e+00  -9.8267078e+00  -9.7939253e+00  -9.7616568e+00  -9.7294671e+00  -9.6966658e+00  -9.6632528e+00  -9.6271798e+00  -9.5892804e+00  -9.5495548e+00  -9.5060062e+00  -9.4608005e+00  -9.4139376e+00  -9.3645748e+00  -9.3144182e+00  -9.2634678e+00  -9.2118975e+00  -9.1604840e+00  -9.1092272e+00  -9.0590792e+00  -9.0098550e+00  -8.9615545e+00  -8.9158983e+00  -8.8718993e+00  -8.8295574e+00  -8.7905324e+00  -8.7526220e+00  -8.7158260e+00  -8.6793531e+00  -8.6421541e+00  -8.6042290e+00  -8.5641314e+00  -8.5231768e+00  -8.4813652e+00  -8.4388078e+00  -8.3962568e+00  -8.3537121e+00  -8.3116760e+00  -8.2702335e+00  -8.2293844e+00  -8.1907899e+00  -8.1537584e+00  -8.1182899e+00  -8.0855942e+00  -8.0532560e+00  -8.0212755e+00  -7.9870275e+00  -7.9504719e+00  -7.9116087e+00  -7.8673433e+00  -7.8203758e+00  -7.7707062e+00  -7.7145637e+00  -7.6537361e+00  -7.5882235e+00  -7.5106045e+00  -7.4274278e+00  -7.3386931e+00  -7.2450369e+00  -7.1531890e+00  -7.0631495e+00  -6.9826771e+00  -6.9073699e+00  -6.8372278e+00  -6.7743308e+00  -6.7131387e+00  -6.6536517e+00  -6.5950754e+00  -6.5365626e+00  -6.4781132e+00  -6.4202700e+00  -6.3633911e+00  -6.3074765e+00  -6.2553830e+00  -6.2062190e+00  -6.1599846e+00  -6.1210254e+00  -6.0856835e+00  -6.0539589e+00  -6.0276162e+00  -6.0023762e+00  -5.9782391e+00  -5.9529238e+00  -5.9257698e+00  -5.8967772e+00  -5.8630358e+00  -5.8270359e+00  -5.7887774e+00  -5.7470185e+00  -5.7041310e+00  -5.6601148e+00  -5.6148985e+00  -5.5694129e+00  -5.5236578e+00  -5.4776049e+00  -5.4313873e+00  -5.3850050e+00  -5.3382572e+00  -5.2914260e+00  -5.2445116e+00  -5.1977603e+00  -5.1510380e+00  -5.1043448e+00  -5.0563874e+00  -5.0064123e+00  -4.9544196e+00  -4.8952127e+00  -4.8316360e+00  -4.7636895e+00  -4.6889278e+00  -4.6134281e+00  -4.5371904e+00  -4.4660212e+00  -4.3997525e+00  -4.3383842e+00  -4.2879268e+00  -4.2418823e+00  -4.2002506e+00  -4.1640851e+00  -4.1292882e+00  -4.0958600e+00  -4.0638337e+00  -4.0322798e+00  -4.0011983e+00  -3.9705025e+00  -3.9394620e+00  -3.9080768e+00  -3.8749075e+00  -3.8406444e+00  -3.8052874e+00  -3.7680516e+00  -3.7300358e+00  -3.6912398e+00  -3.6504704e+00  -3.6080839e+00  -3.5640802e+00  -3.5153964e+00  -3.4641243e+00  -3.4102638e+00  -3.3525360e+00  -3.2943231e+00  -3.2356253e+00  -3.1790069e+00  -3.1240984e+00  -3.0708997e+00  -3.0196291e+00  -2.9673500e+00  -2.9140625e+00  -2.8540843e+00  -2.7890980e+00  -2.7191036e+00  -2.6385326e+00  -2.5539370e+00  -2.4653170e+00  -2.3735683e+00  -2.2831446e+00  -2.1940460e+00  -2.1121211e+00  -2.0345089e+00  -1.9612093e+00  -1.8946659e+00  -1.8298881e+00  -1.7668761e+00  -1.7060105e+00  -1.6474888e+00  -1.5913112e+00  -1.5453473e+00  -1.5068882e+00  -1.4759340e+00  -1.4602510e+00  -1.4496047e+00  -1.4439952e+00  -1.4404991e+00  -1.4347823e+00  -1.4268450e+00  -1.4118717e+00  -1.3938225e+00  -1.3726974e+00  -1.3472781e+00
-1.0149468e+01  -1.0098550e+01  -1.0051903e+01  -1.0007824e+01  -9.9663137e+00  -9.9291924e+00  -9.8935755e+00  -9.8594627e+00  -9.8271402e+00  -9.7952723e+00  -9.7638591e+00  -9.7324298e+00  -9.7003423e+00  -9.6675965e+00  -9.6320384e+00  -9.5945229e+00  -9.5550499e+00  -9.5113763e+00  -9.4658289e+00  -9.4184078e+00  -9.3681561e+00  -9.3170884e+00  -9.2652047e+00  -9.2130178e+00  -9.1612575e+00  -9.1099240e+00  -9.0601791e+00  -9.0114633e+00  -8.9637766e+00  -8.9187269e+00  -8.8753465e+00  -8.8336353e+00  -8.7955017e+00  -8.7587028e+00  -8.7232386e+00  -8.6884539e+00  -8.6529653e+00  -8.6167730e+00  -8.5781356e+00  -8.5384318e+00  -8.4976616e+00  -8.4557205e+00  -8.4135676e+00  -8.3712031e+00  -8.3287907e+00  -8.2865907e+00  -8.2446032e+00  -8.2039245e+00  -8.1643323e+00  -8.1258265e+00  -8.0894530e+00  -8.0534415e+00  -8.0177921e+00  -7.9806423e+00  -7.9418325e+00  -7.9013627e+00  -7.8569042e+00  -7.8103565e+00  -7.7617194e+00  -7.7075853e+00  -7.6491551e+00  -7.5864286e+00  -7.5121279e+00  -7.4323109e+00  -7.3469777e+00  -7.2561628e+00  -7.1665847e+00  -7.0782433e+00  -6.9981253e+00  -6.9226467e+00  -6.8518076e+00  -6.7877553e+00  -6.7254493e+00  -6.6648895e+00  -6.6055704e+00  -6.5464375e+00  -6.4874907e+00  -6.4291123e+00  -6.3715222e+00  -6.3147203e+00  -6.2611817e+00  -6.2102961e+00  -6.1620636e+00  -6.1208171e+00  -6.0832773e+00  -6.0494442e+00  -6.0216665e+00  -5.9954780e+00  -5.9708786e+00  -5.9460440e+00  -5.9196834e+00  -5.8917967e+00  -5.8593486e+00  -5.8245507e+00  -5.7874031e+00  -5.7463868e+00  -5.7040603e+00  -5.6604234e+00  -5.6153437e+00  -5.5699436e+00  -5.5242233e+00  -5.4782020e+00  -5.4320354e+00  -5.3857237e+00  -5.3390783e+00  -5.2923466e+00  -5.2455289e+00  -5.1988354e+00  -5.1521569e+00  -5.1054934e+00  -5.0576530e+00  -5.0079584e+00  -4.9564096e+00  -4.8982470e+00  -4.8360890e+00  -4.7699354e+00  -4.6975700e+00  -4.6245337e+00  -4.5508264e+00  -4.4816679e+00  -4.4168535e+00  -4.3563832e+00  -4.3054138e+00  -4.2582029e+00  -4.2147503e+00  -4.1759225e+00  -4.1383825e+00  -4.1021304e+00  -4.0677829e+00  -4.0343707e+00  -4.0018938e+00  -3.9707584e+00  -3.9395772e+00  -3.9083500e+00  -3.8753575e+00  -3.8410221e+00  -3.8053439e+00  -3.7671150e+00  -3.7278856e+00  -3.6876556e+00  -3.6454219e+00  -3.6016899e+00  -3.5564597e+00  -3.5068020e+00  -3.4546513e+00  -3.4000075e+00  -3.3417630e+00  -3.2832761e+00  -3.2245469e+00  -3.1685706e+00  -3.1146378e+00  -3.0627485e+00  -3.0132438e+00  -2.9628170e+00  -2.9114682e+00  -2.8534029e+00  -2.7902957e+00  -2.7221466e+00  -2.6433937e+00  -2.5605738e+00  -2.4736869e+00  -2.3833149e+00  -2.2938969e+00  -2.2054331e+00  -2.1232189e+00  -2.0449906e+00  -1.9707483e+00  -1.9032430e+00  -1.8377828e+00  -1.7743677e+00  -1.7137989e+00  -1.6557804e+00  -1.6003123e+00  -1.5550903e+00  -1.5172947e+00  -1.4869254e+00  -1.4716556e+00  -1.4613393e+00  -1.4559766e+00  -1.4525248e+00  -1.4467137e+00  -1.4385434e+00  -1.4229036e+00  -1.4038397e+00  -1.3813516e+00  -1.3536802e+00
-1.0143495e+01  -1.0093000e+01  -1.0046972e+01  -1.0003632e+01  -9.9629815e+00  -9.9268553e+00  -9.8922228e+00  -9.8590841e+00  -9.8276273e+00  -9.7965729e+00  -9.7659210e+00  -9.7351745e+00  -9.7037201e+00  -9.6715577e+00  -9.6364066e+00  -9.5991602e+00  -9.5598186e+00  -9.5159154e+00  -9.4699514e+00  -9.4219265e+00  -9.3708242e+00  -9.3189272e+00  -9.2662357e+00  -9.2136354e+00  -9.1617655e+00  -9.1106259e+00  -9.0616117e+00  -9.0137527e+00  -8.9670490e+00  -8.9229790e+00  -8.8805656e+00  -8.8398088e+00  -8.8027751e+00  -8.7672134e+00  -8.7331238e+00  -8.6998895e+00  -8.6658934e+00  -8.6311356e+00  -8.5935344e+00  -8.5546086e+00  -8.5143582e+00  -8.4724459e+00  -8.4301009e+00  -8.3873231e+00  -8.3440288e+00  -8.3006629e+00  -8.2572254e+00  -8.2144266e+00  -8.1723854e+00  -8.1311019e+00  -8.0915348e+00  -8.0523633e+00  -8.0135873e+00  -7.9739439e+00  -7.9331646e+00  -7.8912495e+00  -7.8465318e+00  -7.8002838e+00  -7.7525055e+00  -7.7002356e+00  -7.6441186e+00  -7.5841544e+00  -7.5132970e+00  -7.4370194e+00  -7.3553217e+00  -7.2675904e+00  -7.1804638e+00  -7.0939422e+00  -7.0140898e+00  -6.9382536e+00  -6.8664335e+00  -6.8008660e+00  -6.7371347e+00  -6.6752394e+00  -6.6151472e+00  -6.5555023e+00  -6.4963045e+00  -6.4378682e+00  -6.3801084e+00  -6.3230249e+00  -6.2686556e+00  -6.2166083e+00  -6.1668828e+00  -6.1236478e+00  -6.0840795e+00  -6.0481780e+00  -6.0187643e+00  -5.9913438e+00  -5.9659165e+00  -5.9411359e+00  -5.9151563e+00  -5.8879778e+00  -5.8565086e+00  -5.8226497e+00  -5.7864011e+00  -5.7460081e+00  -5.7041565e+00  -5.6608461e+00  -5.6158873e+00  -5.5705650e+00  -5.5248790e+00  -5.4788922e+00  -5.4327799e+00  -5.3865423e+00  -5.3400051e+00  -5.2933789e+00  -5.2466637e+00  -5.2000235e+00  -5.1533787e+00  -5.1067292e+00  -5.0590059e+00  -5.0096292e+00  -4.9585991e+00  -4.9017016e+00  -4.8412731e+00  -4.7773137e+00  -4.7078886e+00  -4.6378751e+00  -4.5672733e+00  -4.5005967e+00  -4.4376137e+00  -4.3783242e+00  -4.3269345e+00  -4.2785817e+00  -4.2332657e+00  -4.1916482e+00  -4.1511957e+00  -4.1119081e+00  -4.0749061e+00  -4.0392314e+00  -4.0048841e+00  -3.9727467e+00  -3.9408783e+00  -3.9092790e+00  -3.8760869e+00  -3.8414090e+00  -3.8052454e+00  -3.7660418e+00  -3.7256711e+00  -3.6841334e+00  -3.6406152e+00  -3.5957446e+00  -3.5495217e+00  -3.4992122e+00  -3.4465524e+00  -3.3915423e+00  -3.3332085e+00  -3.2747977e+00  -3.2163097e+00  -3.1609315e+00  -3.1077510e+00  -3.0567682e+00  -3.0083919e+00  -2.9591774e+00  -2.9091245e+00  -2.8525301e+00  -2.7910048e+00  -2.7245485e+00  -2.6477219e+00  -2.5668702e+00  -2.4819935e+00  -2.3933326e+00  -2.3052259e+00  -2.2176732e+00  -2.1352863e+00  -2.0564619e+00  -1.9812001e+00  -1.9125468e+00  -1.8462612e+00  -1.7823431e+00  -1.7222511e+00  -1.6650714e+00  -1.6108039e+00  -1.5669246e+00  -1.5302871e+00  -1.5008915e+00  -1.4860015e+00  -1.4757925e+00  -1.4702647e+00  -1.4662951e+00  -1.4598616e+00  -1.4509643e+00  -1.4343017e+00  -1.4138987e+00  -1.3897552e+00  -1.3595019e+00
-1.0138017e+01  -1.0087944e+01  -1.0042523e+01  -9.9998976e+00  -9.9600677e+00  -9.9248664e+00  -9.8911333e+00  -9.8588686e+00  -9.8281692e+00  -9.7978271e+00  -9.7678423e+00  -9.7377011e+00  -9.7067992e+00  -9.6751366e+00  -9.6402842e+00  -9.6031923e+00  -9.5638609e+00  -9.5196238e+00  -9.4731681e+00  -9.4244938e+00  -9.3725789e+00  -9.3199345e+00  -9.2665606e+00  -9.2137505e+00  -9.1620080e+00  -9.1113329e+00  -9.0633771e+00  -9.0167233e+00  -8.9713717e+00  -8.9286547e+00  -8.8875567e+00  -8.8480778e+00  -8.8123525e+00  -8.7781537e+00  -8.7454815e+00  -8.7136599e+00  -8.6809384e+00  -8.6473169e+00  -8.6103277e+00  -8.5717071e+00  -8.5314550e+00  -8.4889841e+00  -8.4458564e+00  -8.4020720e+00  -8.3573904e+00  -8.3124501e+00  -8.2672510e+00  -8.2222961e+00  -8.1779178e+00  -8.1341162e+00  -8.0918398e+00  -8.0500215e+00  -8.0086613e+00  -7.9669323e+00  -7.9244682e+00  -7.8812690e+00  -7.8362260e+00  -7.7901578e+00  -7.7430644e+00  -7.6925146e+00  -7.6386267e+00  -7.5814009e+00  -7.5141118e+00  -7.4415533e+00  -7.3637252e+00  -7.2793196e+00  -7.1948266e+00  -7.1102462e+00  -7.0305708e+00  -6.9541906e+00  -6.8811054e+00  -6.8136628e+00  -6.7481949e+00  -6.6847014e+00  -6.6238058e+00  -6.5637569e+00  -6.5045547e+00  -6.4465377e+00  -6.3891495e+00  -6.3323903e+00  -6.2778049e+00  -6.2251555e+00  -6.1744423e+00  -6.1295176e+00  -6.0880903e+00  -6.0501604e+00  -6.0189095e+00  -5.9899735e+00  -5.9633527e+00  -5.9381995e+00  -5.9121887e+00  -5.8853202e+00  -5.8545159e+00  -5.8213329e+00  -5.7857714e+00  -5.7458824e+00  -5.7044195e+00  -5.6613827e+00  -5.6165295e+00  -5.5712768e+00  -5.5256248e+00  -5.4796755e+00  -5.4336208e+00  -5.3874607e+00  -5.3410378e+00  -5.2945229e+00  -5.2479162e+00  -5.2013248e+00  -5.1547035e+00  -5.1080523e+00  -5.0604464e+00  -5.0114250e+00  -4.9609880e+00  -4.9055764e+00  -4.8471885e+00  -4.7858243e+00  -4.7198834e+00  -4.6534524e+00  -4.5865312e+00  -4.5228076e+00  -4.4620330e+00  -4.4042072e+00  -4.3524888e+00  -4.3030187e+00  -4.2557969e+00  -4.2112622e+00  -4.1677276e+00  -4.1251931e+00  -4.0852033e+00  -4.0468620e+00  -4.0101690e+00  -3.9764673e+00  -3.9433656e+00  -3.9108639e+00  -3.8770957e+00  -3.8418050e+00  -3.8049917e+00  -3.7648319e+00  -3.7233923e+00  -3.6806731e+00  -3.6360504e+00  -3.5902480e+00  -3.5432661e+00  -3.4926271e+00  -3.4398278e+00  -3.3848681e+00  -3.3268725e+00  -3.2688877e+00  -3.2109137e+00  -3.1560898e+00  -3.1034381e+00  -3.0529587e+00  -3.0050736e+00  -2.9564312e+00  -2.9070315e+00  -2.8514660e+00  -2.7912253e+00  -2.7263093e+00  -2.6515171e+00  -2.5728262e+00  -2.4902368e+00  -2.4036215e+00  -2.3171314e+00  -2.2307665e+00  -2.1483235e+00  -2.0689228e+00  -1.9925647e+00  -1.9225774e+00  -1.8553233e+00  -1.7908024e+00  -1.7313671e+00  -1.6753616e+00  -1.6227860e+00  -1.5808500e+00  -1.5458654e+00  -1.5178323e+00  -1.5032887e+00  -1.4929645e+00  -1.4868596e+00  -1.4818099e+00  -1.4742259e+00  -1.4641076e+00  -1.4460659e+00  -1.4239994e+00  -1.3979081e+00  -1.3647433e+00
-1.0134316e+01  -1.0084592e+01  -1.0039680e+01  -9.9976372e+00  -9.9584643e+00  -9.9239695e+00  -9.8909224e+00  -9.8593232e+00  -9.8292426e+00  -9.7995132e+00  -9.7701349e+00  -9.7405545e+00  -9.7101218e+00  -9.6788368e+00  -9.6440430e+00  -9.6068371e+00  -9.5672191e+00  -9.5224771e+00  -9.4755188e+00  -9.4263439e+00  -9.3741748e+00  -9.3215019e+00  -9.2683255e+00  -9.2162784e+00  -9.1655707e+00  -9.1162024e+00  -9.0699284e+00  -9.0250124e+00  -8.9814545e+00  -8.9404118e+00  -8.9008702e+00  -8.8628298e+00  -8.8282854e+00  -8.7951302e+00  -8.7633642e+00  -8.7320851e+00  -8.6996628e+00  -8.6660973e+00  -8.6285969e+00  -8.5891898e+00  -8.5478760e+00  -8.5039072e+00  -8.4591508e+00  -8.4136070e+00  -8.3670702e+00  -8.3202711e+00  -8.2732096e+00  -8.2263863e+00  -8.1801252e+00  -8.1344264e+00  -8.0902448e+00  -8.0465673e+00  -8.0033938e+00  -7.9601042e+00  -7.9163041e+00  -7.8719935e+00  -7.8265131e+00  -7.7804688e+00  -7.7338605e+00  -7.6849527e+00  -7.6333381e+00  -7.5790167e+00  -7.5156831e+00  -7.4472784e+00  -7.3738027e+00  -7.2931281e+00  -7.2115583e+00  -7.1290933e+00  -7.0494527e+00  -6.9722343e+00  -6.8974380e+00  -6.8275127e+00  -6.7597310e+00  -6.6940929e+00  -6.6321245e+00  -6.5716031e+00  -6.5125287e+00  -6.4554486e+00  -6.3990887e+00  -6.3434491e+00  -6.2895721e+00  -6.2372337e+00  -6.1864338e+00  -6.1405403e+00  -6.0978168e+00  -6.0582631e+00  -6.0251703e+00  -5.9945139e+00  -5.9662938e+00  -5.9400662e+00  -5.9132589e+00  -5.8858720e+00  -5.8549514e+00  -5.8217488e+00  -5.7862644e+00  -5.7464892e+00  -5.7051231e+00  -5.6621660e+00  -5.6173545e+00  -5.5721358e+00  -5.5265098e+00  -5.4806022e+00  -5.4346067e+00  -5.3885231e+00  -5.3422072e+00  -5.2957953e+00  -5.2492876e+00  -5.2027318e+00  -5.1561221e+00  -5.1094586e+00  -5.0619746e+00  -5.0133355e+00  -4.9635413e+00  -4.9097384e+00  -4.8535550e+00  -4.7949910e+00  -4.7327949e+00  -4.6702140e+00  -4.6072481e+00  -4.5467529e+00  -4.4884805e+00  -4.4324309e+00  -4.3808019e+00  -4.3306953e+00  -4.2821110e+00  -4.2352369e+00  -4.1891060e+00  -4.1437186e+00  -4.1007133e+00  -4.0594201e+00  -4.0198390e+00  -3.9836674e+00  -3.9484286e+00  -3.9141226e+00  -3.8792653e+00  -3.8431409e+00  -3.8057493e+00  -3.7652111e+00  -3.7234050e+00  -3.6803311e+00  -3.6354254e+00  -3.5894572e+00  -3.5424265e+00  -3.4920855e+00  -3.4397342e+00  -3.3853728e+00  -3.3280490e+00  -3.2706015e+00  -3.2130305e+00  -3.1580578e+00  -3.1049796e+00  -3.0537959e+00  -3.0050209e+00  -2.9556891e+00  -2.9058003e+00  -2.8506422e+00  -2.7913411e+00  -2.7278973e+00  -2.6554328e+00  -2.5792476e+00  -2.4993416e+00  -2.4150747e+00  -2.3304178e+00  -2.2453709e+00  -2.1628390e+00  -2.0827763e+00  -2.0051829e+00  -1.9337471e+00  -1.8655274e+00  -1.8005236e+00  -1.7423004e+00  -1.6882323e+00  -1.6383190e+00  -1.5993464e+00  -1.5667938e+00  -1.5406611e+00  -1.5262030e+00  -1.5151693e+00  -1.5075599e+00  -1.5002766e+00  -1.4904796e+00  -1.4781688e+00  -1.4580842e+00  -1.4337927e+00  -1.4052942e+00  -1.3688251e+00
-1.0131872e+01  -1.0082478e+01  -1.0038022e+01  -9.9964834e+00  -9.9578625e+00  -9.9239454e+00  -9.8914683e+00  -9.8604310e+00  -9.8309241e+00  -9.8017855e+00  -9.7730150e+00  -9.7439920e+00  -9.7139987e+00  -9.6830352e+00  -9.6481827e+00  -9.6107445e+00  -9.5707207e+00  -9.5254572e+00  -9.4780816e+00  -9.4285940e+00  -9.3765941e+00  -9.3243924e+00  -9.2719889e+00  -9.2212636e+00  -9.1720618e+00  -9.1243836e+00  -9.0799443e+00  -9.0368301e+00  -8.9950409e+00  -8.9555431e+00  -8.9173848e+00  -8.8805660e+00  -8.8468606e+00  -8.8143320e+00  -8.7829803e+00  -8.7516525e+00  -8.7189425e+00  -8.6848504e+00  -8.6463643e+00  -8.6057711e+00  -8.5630706e+00  -8.5174223e+00  -8.4709171e+00  -8.4235551e+00  -8.3752135e+00  -8.3266532e+00  -8.2778740e+00  -8.2293943e+00  -8.1814780e+00  -8.1341251e+00  -8.0882771e+00  -8.0429599e+00  -7.9981736e+00  -7.9534567e+00  -7.9084128e+00  -7.8630417e+00  -7.8171094e+00  -7.7710715e+00  -7.7249282e+00  -7.6777096e+00  -7.6284677e+00  -7.5772025e+00  -7.5180554e+00  -7.4540386e+00  -7.3851522e+00  -7.3083857e+00  -7.2298739e+00  -7.1496166e+00  -7.0700198e+00  -6.9919342e+00  -6.9153598e+00  -6.8428155e+00  -6.7725617e+00  -6.7045984e+00  -6.6413821e+00  -6.5802426e+00  -6.5211798e+00  -6.4650202e+00  -6.4097272e+00  -6.3553009e+00  -6.3023268e+00  -6.2505302e+00  -6.1999111e+00  -6.1533417e+00  -6.1095917e+00  -6.0686611e+00  -6.0338533e+00  -6.0015177e+00  -5.9716543e+00  -5.9441385e+00  -5.9162636e+00  -5.8880294e+00  -5.8566330e+00  -5.8230768e+00  -5.7873608e+00  -5.7474871e+00  -5.7060549e+00  -5.6630643e+00  -5.6182513e+00  -5.5730412e+00  -5.5274340e+00  -5.4815689e+00  -5.4356308e+00  -5.3896198e+00  -5.3434012e+00  -5.2970821e+00  -5.2506625e+00  -5.2041378e+00  -5.1575389e+00  -5.1108658e+00  -5.0635071e+00  -5.0152406e+00  -4.9660660e+00  -4.9137909e+00  -4.8596912e+00  -4.8037670e+00  -4.7450855e+00  -4.6861157e+00  -4.6268579e+00  -4.5694122e+00  -4.5135410e+00  -4.4592443e+00  -4.4078837e+00  -4.3574097e+00  -4.3078224e+00  -4.2590530e+00  -4.2107427e+00  -4.1628917e+00  -4.1170825e+00  -4.0729359e+00  -4.0304519e+00  -3.9916372e+00  -3.9540866e+00  -3.9178003e+00  -3.8818466e+00  -3.8450122e+00  -3.8072968e+00  -3.7668666e+00  -3.7252319e+00  -3.6823928e+00  -3.6377539e+00  -3.5921069e+00  -3.5454520e+00  -3.4956802e+00  -3.4439615e+00  -3.3902958e+00  -3.3335236e+00  -3.2763690e+00  -3.2188319e+00  -3.1631300e+00  -3.1090002e+00  -3.0564424e+00  -3.0061784e+00  -2.9556567e+00  -2.9048771e+00  -2.8499620e+00  -2.7915267e+00  -2.7295712e+00  -2.6595169e+00  -2.5858964e+00  -2.5087096e+00  -2.4267375e+00  -2.3438378e+00  -2.2600105e+00  -2.1773310e+00  -2.0965957e+00  -2.0178046e+00  -1.9450537e+00  -1.8760386e+00  -1.8107593e+00  -1.7540152e+00  -1.7021672e+00  -1.6552153e+00  -1.6194561e+00  -1.5895028e+00  -1.5653555e+00  -1.5508388e+00  -1.5388618e+00  -1.5294245e+00  -1.5195325e+00  -1.5071784e+00  -1.4923623e+00  -1.4700329e+00  -1.4433687e+00  -1.4123699e+00  -1.3725997e+00
-1.0130683e+01  -1.0081604e+01  -1.0037550e+01  -9.9964361e+00  -9.9582624e+00  -9.9247942e+00  -9.8927708e+00  -9.8621922e+00  -9.8332138e+00  -9.8046439e+00  -9.7764826e+00  -9.7480135e+00  -9.7184299e+00  -9.6877317e+00  -9.6527033e+00  -9.6149146e+00  -9.5743656e+00  -9.5285638e+00  -9.4808566e+00  -9.4312439e+00  -9.3798370e+00  -9.3286060e+00  -9.2775507e+00  -9.2287060e+00  -9.1814814e+00  -9.1358767e+00  -9.0934248e+00  -9.0521762e+00  -9.0121307e+00  -8.9740486e+00  -8.9371004e+00  -8.9012861e+00  -8.8680779e+00  -8.8357592e+00  -8.8043299e+00  -8.7723621e+00  -8.7387775e+00  -8.7035761e+00  -8.6636298e+00  -8.6214507e+00  -8.5770388e+00  -8.5295293e+00  -8.4811551e+00  -8.4319162e+00  -8.3818204e+00  -8.3315964e+00  -8.2812443e+00  -8.2313201e+00  -8.1819760e+00  -8.1332121e+00  -8.0859365e+00  -8.0391994e+00  -7.9930005e+00  -7.9469899e+00  -7.9007942e+00  -7.8544135e+00  -7.8080147e+00  -7.7619661e+00  -7.7162676e+00  -7.6707853e+00  -7.6240155e+00  -7.5759583e+00  -7.5212288e+00  -7.4618340e+00  -7.3977737e+00  -7.3250926e+00  -7.2497733e+00  -7.1718159e+00  -7.0922721e+00  -7.0132904e+00  -6.9348707e+00  -6.8595711e+00  -6.7866869e+00  -6.7162180e+00  -6.6515786e+00  -6.5896753e+00  -6.5305080e+00  -6.4752525e+00  -6.4210650e+00  -6.3679457e+00  -6.3160690e+00  -6.2650452e+00  -6.2148743e+00  -6.1679217e+00  -6.1234150e+00  -6.0813541e+00  -6.0449584e+00  -6.0109851e+00  -5.9794340e+00  -5.9504166e+00  -5.9212027e+00  -5.8917923e+00  -5.8595606e+00  -5.8253167e+00  -5.7890606e+00  -5.7488759e+00  -5.7072150e+00  -5.6640778e+00  -5.6192198e+00  -5.5739930e+00  -5.5283976e+00  -5.4825754e+00  -5.4366932e+00  -5.3907509e+00  -5.3446198e+00  -5.2983831e+00  -5.2520409e+00  -5.2055429e+00  -5.1589538e+00  -5.1122737e+00  -5.0650439e+00  -5.0171401e+00  -4.9685621e+00  -4.9177338e+00  -4.8655972e+00  -4.8121524e+00  -4.7567550e+00  -4.7011577e+00  -4.6453605e+00  -4.5907855e+00  -4.5372144e+00  -4.4846473e+00  -4.4337341e+00  -4.3831620e+00  -4.3329310e+00  -4.2827106e+00  -4.2326377e+00  -4.1827126e+00  -4.1343110e+00  -4.0874095e+00  -4.0420079e+00  -4.0003765e+00  -3.9603395e+00  -3.9218969e+00  -3.8848397e+00  -3.8474189e+00  -3.8096344e+00  -3.7697982e+00  -3.7288728e+00  -3.6868582e+00  -3.6430357e+00  -3.5981971e+00  -3.5523424e+00  -3.5034111e+00  -3.4525094e+00  -3.3996372e+00  -3.3432965e+00  -3.2861900e+00  -3.2283177e+00  -3.1713061e+00  -3.1154997e+00  -3.0608983e+00  -3.0085462e+00  -2.9563340e+00  -2.9042618e+00  -2.8494256e+00  -2.7917819e+00  -2.7313309e+00  -2.6637694e+00  -2.5927726e+00  -2.5183406e+00  -2.4386099e+00  -2.3573914e+00  -2.2746851e+00  -2.1917996e+00  -2.1103811e+00  -2.0304298e+00  -1.9564970e+00  -1.8868570e+00  -1.8215096e+00  -1.7665114e+00  -1.7171665e+00  -1.6734750e+00  -1.6411790e+00  -1.6139925e+00  -1.5919154e+00  -1.5771960e+00  -1.5640421e+00  -1.5524534e+00  -1.5395776e+00  -1.5243225e+00  -1.5066881e+00  -1.4819119e+00  -1.4527276e+00  -1.4191351e+00  -1.3760668e+00
-1.0132189e+01  -1.0083551e+01  -1.0039906e+01  -9.9991494e+00  -9.9612818e+00  -9.9280420e+00  -9.8962671e+00  -9.8659573e+00  -9.8373939e+00  -9.8092949e+00  -9.7816604e+00  -9.7536122e+00  -9.7242609e+00  -9.6936064e+00  -9.6581558e+00  -9.6198215e+00  -9.5786037e+00  -9.5323628e+00  -9.4845835e+00  -9.4352659e+00  -9.3851573e+00  -9.3356555e+00  -9.2867606e+00  -9.2404443e+00  -9.1956532e+00  -9.1523873e+00  -9.1117483e+00  -9.0720297e+00  -9.0332317e+00  -8.9959058e+00  -8.9594596e+00  -8.9238933e+00  -8.8903146e+00  -8.8572902e+00  -8.8248199e+00  -8.7912821e+00  -8.7560036e+00  -8.7189843e+00  -8.6772206e+00  -8.6332761e+00  -8.5871509e+00  -8.5380379e+00  -8.4881241e+00  -8.4374094e+00  -8.3860093e+00  -8.3345638e+00  -8.2830728e+00  -8.2320779e+00  -8.1816407e+00  -8.1317612e+00  -8.0832934e+00  -8.0353613e+00  -7.9879651e+00  -7.9408696e+00  -7.8937168e+00  -7.8465066e+00  -7.7997742e+00  -7.7538473e+00  -7.7087259e+00  -7.6652071e+00  -7.6212038e+00  -7.5767161e+00  -7.5268150e+00  -7.4724032e+00  -7.4134808e+00  -7.3450289e+00  -7.2729969e+00  -7.1973848e+00  -7.1179598e+00  -7.0381773e+00  -6.9580374e+00  -6.8800792e+00  -6.8045790e+00  -6.7315369e+00  -6.6651804e+00  -6.6021385e+00  -6.5424112e+00  -6.4875809e+00  -6.4340835e+00  -6.3819189e+00  -6.3310061e+00  -6.2807440e+00  -6.2311328e+00  -6.1841091e+00  -6.1392035e+00  -6.0964162e+00  -6.0587788e+00  -6.0234144e+00  -5.9903231e+00  -5.9596837e+00  -5.9288943e+00  -5.8979546e+00  -5.8644177e+00  -5.8290239e+00  -5.7917732e+00  -5.7509383e+00  -5.7087793e+00  -5.6652962e+00  -5.6203058e+00  -5.5750043e+00  -5.5293916e+00  -5.4836010e+00  -5.4377609e+00  -5.3918711e+00  -5.3458059e+00  -5.2996321e+00  -5.2533496e+00  -5.2068790e+00  -5.1603097e+00  -5.1136419e+00  -5.0665359e+00  -5.0189345e+00  -4.9708376e+00  -4.9211211e+00  -4.8704720e+00  -4.8188904e+00  -4.7659326e+00  -4.7128347e+00  -4.6595969e+00  -4.6071686e+00  -4.5553586e+00  -4.5041671e+00  -4.4537903e+00  -4.4033972e+00  -4.3529878e+00  -4.3019976e+00  -4.2508631e+00  -4.1995843e+00  -4.1492110e+00  -4.1000968e+00  -4.0522415e+00  -4.0081320e+00  -3.9659432e+00  -3.9256749e+00  -3.8879910e+00  -3.8505860e+00  -3.8134598e+00  -3.7751800e+00  -3.7359746e+00  -3.6958434e+00  -3.6538080e+00  -3.6106284e+00  -3.5663045e+00  -3.5185963e+00  -3.4686781e+00  -3.4165500e+00  -3.3601164e+00  -3.3023266e+00  -3.2431806e+00  -3.1837099e+00  -3.1251113e+00  -3.0673849e+00  -3.0121458e+00  -2.9576192e+00  -2.9038052e+00  -2.8488642e+00  -2.7918791e+00  -2.7328498e+00  -2.6676221e+00  -2.5990042e+00  -2.5269958e+00  -2.4490655e+00  -2.3691388e+00  -2.2872158e+00  -2.2041132e+00  -2.1221967e+00  -2.0414664e+00  -1.9669565e+00  -1.8972672e+00  -1.8323985e+00  -1.7794347e+00  -1.7327387e+00  -1.6923107e+00  -1.6633018e+00  -1.6386809e+00  -1.6184479e+00  -1.6033337e+00  -1.5888394e+00  -1.5749648e+00  -1.5590230e+00  -1.5408072e+00  -1.5203174e+00  -1.4931415e+00  -1.4615620e+00  -1.4255788e+00  -1.3796349e+00
-1.0134757e+01  -1.0086732e+01  -1.0043595e+01  -1.0003252e+01  -9.9657036e+00  -9.9326468e+00  -9.9010588e+00  -9.8709399e+00  -9.8426844e+00  -9.8149246e+00  -9.7876603e+00  -9.7598274e+00  -9.7305018e+00  -9.6996835e+00  -9.6636698e+00  -9.6247096e+00  -9.5828028e+00  -9.5362175e+00  -9.4884903e+00  -9.4396213e+00  -9.3909447e+00  -9.3432627e+00  -9.2965752e+00  -9.2527132e+00  -9.2102173e+00  -9.1690874e+00  -9.1299582e+00  -9.0914388e+00  -9.0535294e+00  -9.0165930e+00  -8.9802949e+00  -8.9446351e+00  -8.9103884e+00  -8.8763959e+00  -8.8426574e+00  -8.8074302e+00  -8.7704077e+00  -8.7315900e+00  -8.6881702e+00  -8.6426749e+00  -8.5951039e+00  -8.5447031e+00  -8.4935598e+00  -8.4416742e+00  -8.3892257e+00  -8.3367828e+00  -8.2843453e+00  -8.2324173e+00  -8.1810076e+00  -8.1301161e+00  -8.0805615e+00  -8.0315562e+00  -7.9831003e+00  -7.9350946e+00  -7.8871630e+00  -7.8393052e+00  -7.7923936e+00  -7.7467261e+00  -7.7023029e+00  -7.6608632e+00  -7.6197417e+00  -7.5789382e+00  -7.5339287e+00  -7.4845080e+00  -7.4306763e+00  -7.3663097e+00  -7.2974239e+00  -7.2240187e+00  -7.1447016e+00  -7.0641880e+00  -6.9824777e+00  -6.9020832e+00  -6.8241523e+00  -6.7486847e+00  -6.6805797e+00  -6.6162745e+00  -6.5557691e+00  -6.5010432e+00  -6.4479168e+00  -6.3963901e+00  -6.3462121e+00  -6.2965465e+00  -6.2473931e+00  -6.2003214e+00  -6.1550846e+00  -6.1116829e+00  -6.0729478e+00  -6.0363237e+00  -6.0018104e+00  -5.9695989e+00  -5.9372437e+00  -5.9047448e+00  -5.8698142e+00  -5.8331731e+00  -5.7948214e+00  -5.7532438e+00  -5.7105085e+00  -5.6666155e+00  -5.6214541e+00  -5.5760472e+00  -5.5303946e+00  -5.4846205e+00  -5.4388092e+00  -5.3929605e+00  -5.3469525e+00  -5.3008352e+00  -5.2546085e+00  -5.2081711e+00  -5.1616304e+00  -5.1149864e+00  -5.0679952e+00  -5.0206546e+00  -4.9729646e+00  -4.9241693e+00  -4.8747478e+00  -4.8247000e+00  -4.7737427e+00  -4.7226917e+00  -4.6715471e+00  -4.6208694e+00  -4.5704932e+00  -4.5204185e+00  -4.4704687e+00  -4.4202088e+00  -4.3696388e+00  -4.3180041e+00  -4.2659887e+00  -4.2135925e+00  -4.1616018e+00  -4.1106769e+00  -4.0608177e+00  -4.0147148e+00  -3.9708397e+00  -3.9291925e+00  -3.8912490e+00  -3.8541880e+00  -3.8180095e+00  -3.7815208e+00  -3.7442492e+00  -3.7061949e+00  -3.6660991e+00  -3.6247023e+00  -3.5820043e+00  -3.5355304e+00  -3.4865503e+00  -3.4350639e+00  -3.3783182e+00  -3.3195892e+00  -3.2588769e+00  -3.1966656e+00  -3.1350351e+00  -3.0739854e+00  -3.0157606e+00  -2.9588465e+00  -2.9032431e+00  -2.8481339e+00  -2.7917083e+00  -2.7339664e+00  -2.6708506e+00  -2.6043612e+00  -2.5344981e+00  -2.4581154e+00  -2.3792967e+00  -2.2980420e+00  -2.2148262e+00  -2.1326123e+00  -2.0514005e+00  -1.9766622e+00  -1.9071992e+00  -1.8430117e+00  -1.7920061e+00  -1.7477551e+00  -1.7102585e+00  -1.6841196e+00  -1.6617108e+00  -1.6430322e+00  -1.6274837e+00  -1.6117227e+00  -1.5957490e+00  -1.5770340e+00  -1.5561500e+00  -1.5330969e+00  -1.5037860e+00  -1.4700877e+00  -1.4320018e+00  -1.3835435e+00
-1.0138385e+01  -1.0091146e+01  -1.0048618e+01  -1.0008745e+01  -9.9715281e+00  -9.9386085e+00  -9.9071458e+00  -9.8771400e+00  -9.8490855e+00  -9.8215329e+00  -9.7944822e+00  -9.7666591e+00  -9.7371527e+00  -9.7059631e+00  -9.6692454e+00  -9.6295786e+00  -9.5869627e+00  -9.5401278e+00  -9.4925769e+00  -9.4443102e+00  -9.3971993e+00  -9.3514274e+00  -9.3069944e+00  -9.2655128e+00  -9.2251736e+00  -9.1859770e+00  -9.1480544e+00  -9.1104034e+00  -9.0730238e+00  -9.0361102e+00  -8.9996061e+00  -8.9635115e+00  -8.9282993e+00  -8.8930763e+00  -8.8578424e+00  -8.8208062e+00  -8.7819897e+00  -8.7413931e+00  -8.6964788e+00  -8.6496471e+00  -8.6008978e+00  -8.5495246e+00  -8.4974623e+00  -8.4447107e+00  -8.3914696e+00  -8.3382533e+00  -8.2850618e+00  -8.2323383e+00  -8.1800766e+00  -8.1282768e+00  -8.0777410e+00  -8.0277840e+00  -7.9784060e+00  -7.9296649e+00  -7.8811328e+00  -7.8328094e+00  -7.7858728e+00  -7.7406025e+00  -7.6969986e+00  -7.6577536e+00  -7.6196289e+00  -7.5826244e+00  -7.5425698e+00  -7.4981484e+00  -7.4493604e+00  -7.3889352e+00  -7.3230543e+00  -7.2517176e+00  -7.1724977e+00  -7.0913224e+00  -7.0081916e+00  -6.9255834e+00  -6.8454067e+00  -6.7676616e+00  -6.6977763e+00  -6.6320831e+00  -6.5705819e+00  -6.5156391e+00  -6.4625649e+00  -6.4113593e+00  -6.3616872e+00  -6.3124525e+00  -6.2636552e+00  -6.2165586e+00  -6.1710583e+00  -6.1271544e+00  -6.0874656e+00  -6.0497128e+00  -6.0138960e+00  -5.9801620e+00  -5.9462509e+00  -5.9121628e+00  -5.8757502e+00  -5.8377644e+00  -5.7982054e+00  -5.7557923e+00  -5.7124023e+00  -5.6680355e+00  -5.6226648e+00  -5.5771217e+00  -5.5314064e+00  -5.4856339e+00  -5.4398381e+00  -5.3940191e+00  -5.3480597e+00  -5.3019924e+00  -5.2558174e+00  -5.2094193e+00  -5.1629159e+00  -5.1163073e+00  -5.0694218e+00  -5.0223004e+00  -4.9749432e+00  -4.9268786e+00  -4.8784246e+00  -4.8295813e+00  -4.7801854e+00  -4.7307286e+00  -4.6812110e+00  -4.6318879e+00  -4.5826181e+00  -4.5334015e+00  -4.4837694e+00  -4.4335969e+00  -4.3828840e+00  -4.3307301e+00  -4.2780145e+00  -4.2247372e+00  -4.1714834e+00  -4.1191498e+00  -4.0677366e+00  -4.0201248e+00  -3.9750292e+00  -3.9324498e+00  -3.8946136e+00  -3.8582249e+00  -3.8232837e+00  -3.7888204e+00  -3.7536968e+00  -3.7179127e+00  -3.6799091e+00  -3.6404188e+00  -3.5994418e+00  -3.5542136e+00  -3.5061260e+00  -3.4551790e+00  -3.3979021e+00  -3.3379780e+00  -3.2754066e+00  -3.2101732e+00  -3.1452710e+00  -3.0806999e+00  -3.0193906e+00  -2.9600159e+00  -2.9025757e+00  -2.8472345e+00  -2.7912695e+00  -2.7346807e+00  -2.6734548e+00  -2.6088437e+00  -2.5408475e+00  -2.4657598e+00  -2.3878652e+00  -2.3071637e+00  -2.2239385e+00  -2.1416279e+00  -2.0602322e+00  -1.9856140e+00  -1.9166530e+00  -1.8533491e+00  -1.8042257e+00  -1.7622155e+00  -1.7273183e+00  -1.7036324e+00  -1.6830824e+00  -1.6656685e+00  -1.6496461e+00  -1.6326919e+00  -1.6148059e+00  -1.5936105e+00  -1.5703508e+00  -1.5450268e+00  -1.5138454e+00  -1.4783046e+00  -1.4384043e+00  -1.3877927e+00
-1.0143106e+01  -1.0097138e+01  -1.0055573e+01  -1.0016451e+01  -9.9797735e+00  -9.9470451e+00  -9.9156731e+00  -9.8856576e+00  -9.8574611e+00  -9.8296669e+00  -9.8022750e+00  -9.7738076e+00  -9.7435180e+00  -9.7114061e+00  -9.6737266e+00  -9.6332621e+00  -9.5900126e+00  -9.5431929e+00  -9.4960434e+00  -9.4485642e+00  -9.4028906e+00  -9.3587113e+00  -9.3160264e+00  -9.2761494e+00  -9.2371520e+00  -9.1990341e+00  -9.1615184e+00  -9.1239924e+00  -9.0864560e+00  -9.0490075e+00  -9.0118263e+00  -8.9749123e+00  -8.9385909e+00  -8.9021379e+00  -8.8655532e+00  -8.8271259e+00  -8.7870351e+00  -8.7452809e+00  -8.6995948e+00  -8.6521521e+00  -8.6029526e+00  -8.5512599e+00  -8.4988642e+00  -8.4457655e+00  -8.3921005e+00  -8.3384222e+00  -8.2847306e+00  -8.2314302e+00  -8.1785615e+00  -8.1261247e+00  -8.0749866e+00  -8.0245197e+00  -7.9747241e+00  -7.9258263e+00  -7.8772536e+00  -7.8290062e+00  -7.7824285e+00  -7.7378331e+00  -7.6952200e+00  -7.6581267e+00  -7.6228509e+00  -7.5893927e+00  -7.5537970e+00  -7.5137620e+00  -7.4692877e+00  -7.4120063e+00  -7.3484562e+00  -7.2786373e+00  -7.1994867e+00  -7.1178990e+00  -7.0338740e+00  -6.9498692e+00  -6.8682119e+00  -6.7889021e+00  -6.7175372e+00  -6.6505168e+00  -6.5878409e+00  -6.5321670e+00  -6.4785790e+00  -6.4270771e+00  -6.3773851e+00  -6.3281512e+00  -6.2793756e+00  -6.2321241e+00  -6.1863154e+00  -6.1419497e+00  -6.1014539e+00  -6.0627385e+00  -6.0258036e+00  -5.9907139e+00  -5.9553852e+00  -5.9198176e+00  -5.8819690e+00  -5.8426594e+00  -5.8018888e+00  -5.7586096e+00  -5.7145289e+00  -5.6696469e+00  -5.6240202e+00  -5.5782941e+00  -5.5324688e+00  -5.4866551e+00  -5.4408383e+00  -5.3950183e+00  -5.3490891e+00  -5.3030625e+00  -5.2569386e+00  -5.2105962e+00  -5.1641466e+00  -5.1175900e+00  -5.0707861e+00  -5.0238032e+00  -4.9766413e+00  -4.9289879e+00  -4.8810769e+00  -4.8329083e+00  -4.7843871e+00  -4.7358173e+00  -4.6871991e+00  -4.6385820e+00  -4.5898380e+00  -4.5409673e+00  -4.4912657e+00  -4.4408552e+00  -4.3897359e+00  -4.3370106e+00  -4.2837307e+00  -4.2298962e+00  -4.1761991e+00  -4.1234891e+00  -4.0717662e+00  -4.0240249e+00  -3.9789728e+00  -3.9366101e+00  -3.8995394e+00  -3.8642091e+00  -3.8306192e+00  -3.7978572e+00  -3.7644218e+00  -3.7303131e+00  -3.6936894e+00  -3.6553959e+00  -3.6154325e+00  -3.5708358e+00  -3.5231085e+00  -3.4722507e+00  -3.4142221e+00  -3.3530330e+00  -3.2886835e+00  -3.2208232e+00  -3.1531481e+00  -3.0856582e+00  -3.0218547e+00  -2.9604881e+00  -2.9015583e+00  -2.8459664e+00  -2.7902828e+00  -2.7345076e+00  -2.6746769e+00  -2.6114767e+00  -2.5449069e+00  -2.4709093e+00  -2.3939055e+00  -2.3138954e+00  -2.2311226e+00  -2.1492482e+00  -2.0682721e+00  -1.9942026e+00  -1.9259140e+00  -1.8634064e+00  -1.8153751e+00  -1.7745425e+00  -1.7409086e+00  -1.7182966e+00  -1.6985027e+00  -1.6815268e+00  -1.6650724e+00  -1.6473355e+00  -1.6283159e+00  -1.6057406e+00  -1.5811799e+00  -1.5546338e+00  -1.5224593e+00  -1.4859122e+00  -1.4449925e+00  -1.3930457e+00
-1.0147900e+01  -1.0103427e+01  -1.0063010e+01  -1.0024800e+01  -9.9887969e+00  -9.9563190e+00  -9.9250378e+00  -9.8949534e+00  -9.8664095e+00  -9.8381123e+00  -9.8100618e+00  -9.7806151e+00  -9.7492586e+00  -9.7159923e+00  -9.6772952e+00  -9.6360569e+00  -9.5922775e+00  -9.5456272e+00  -9.4989853e+00  -9.4523519e+00  -9.4079717e+00  -9.3651371e+00  -9.3238481e+00  -9.2851143e+00  -9.2470065e+00  -9.2095248e+00  -9.1720740e+00  -9.1343840e+00  -9.0964549e+00  -9.0583234e+00  -9.0203642e+00  -8.9825773e+00  -8.9452202e+00  -8.9076824e+00  -8.8699640e+00  -8.8304774e+00  -8.7894682e+00  -8.7469365e+00  -8.7008382e+00  -8.6531129e+00  -8.6037607e+00  -8.5519684e+00  -8.4994220e+00  -8.4461215e+00  -8.3921215e+00  -8.3380653e+00  -8.2839527e+00  -8.2302028e+00  -8.1769014e+00  -8.1240486e+00  -8.0726288e+00  -8.0220031e+00  -7.9721715e+00  -7.9234949e+00  -7.8752209e+00  -7.8273495e+00  -7.7812830e+00  -7.7374111e+00  -7.6957337e+00  -7.6604977e+00  -7.6276594e+00  -7.5972190e+00  -7.5653869e+00  -7.5290243e+00  -7.4881310e+00  -7.4333968e+00  -7.3717318e+00  -7.3031360e+00  -7.2241447e+00  -7.1424008e+00  -7.0579044e+00  -6.9730900e+00  -6.8905144e+00  -6.8101775e+00  -6.7376672e+00  -6.6695293e+00  -6.6057639e+00  -6.5492498e+00  -6.4949923e+00  -6.4429913e+00  -6.3930744e+00  -6.3436605e+00  -6.2947497e+00  -6.2472507e+00  -6.2010689e+00  -6.1562042e+00  -6.1149091e+00  -6.0752564e+00  -6.0372462e+00  -6.0008691e+00  -5.9641978e+00  -5.9272324e+00  -5.8880262e+00  -5.8474636e+00  -5.8055445e+00  -5.7614405e+00  -5.7166983e+00  -5.6713179e+00  -5.6254340e+00  -5.5795181e+00  -5.5335701e+00  -5.4876990e+00  -5.4418455e+00  -5.3960094e+00  -5.3501010e+00  -5.3041093e+00  -5.2580342e+00  -5.2117512e+00  -5.1653598e+00  -5.1188598e+00  -5.0721281e+00  -5.0252568e+00  -4.9782459e+00  -4.9309015e+00  -4.8833989e+00  -4.8357380e+00  -4.7878778e+00  -4.7399758e+00  -4.6920320e+00  -4.6439161e+00  -4.5955065e+00  -4.5468032e+00  -4.4968741e+00  -4.4460859e+00  -4.3944386e+00  -4.3411274e+00  -4.2873760e+00  -4.2331842e+00  -4.1795202e+00  -4.1270170e+00  -4.0756745e+00  -4.0285145e+00  -3.9841113e+00  -3.9424648e+00  -3.9062996e+00  -3.8719820e+00  -3.8395120e+00  -3.8079329e+00  -3.7755777e+00  -3.7424464e+00  -3.7064122e+00  -3.6685212e+00  -3.6287736e+00  -3.5841106e+00  -3.5361624e+00  -3.4849291e+00  -3.4260421e+00  -3.3636884e+00  -3.2978679e+00  -3.2280358e+00  -3.1583218e+00  -3.0887258e+00  -3.0231499e+00  -2.9603723e+00  -2.9003930e+00  -2.8446587e+00  -2.7892496e+00  -2.7341654e+00  -2.6755602e+00  -2.6136601e+00  -2.5484651e+00  -2.4757015e+00  -2.3998116e+00  -2.3207951e+00  -2.2388146e+00  -2.1576595e+00  -2.0773296e+00  -2.0037830e+00  -1.9359651e+00  -1.8738761e+00  -1.8262000e+00  -1.7857012e+00  -1.7523797e+00  -1.7299772e+00  -1.7102779e+00  -1.6932818e+00  -1.6764889e+00  -1.6582813e+00  -1.6386589e+00  -1.6154053e+00  -1.5902149e+00  -1.5630878e+00  -1.5304205e+00  -1.4933201e+00  -1.4517868e+00  -1.3988752e+00
-1.0152767e+01  -1.0110013e+01  -1.0070929e+01  -1.0033791e+01  -9.9985981e+00  -9.9664300e+00  -9.9352398e+00  -9.9050274e+00  -9.8759308e+00  -9.8468692e+00  -9.8178425e+00  -9.7870814e+00  -9.7543745e+00  -9.7197218e+00  -9.6799510e+00  -9.6379630e+00  -9.5937576e+00  -9.5474307e+00  -9.5014025e+00  -9.4556732e+00  -9.4124425e+00  -9.3707047e+00  -9.3304596e+00  -9.2924074e+00  -9.2547372e+00  -9.2174492e+00  -9.1797212e+00  -9.1415784e+00  -9.1030207e+00  -9.0640580e+00  -9.0252199e+00  -8.9865065e+00  -8.9481872e+00  -8.9097099e+00  -8.8710747e+00  -8.8308608e+00  -8.7892892e+00  -8.7463598e+00  -8.7002090e+00  -8.6525297e+00  -8.6033220e+00  -8.5516500e+00  -8.4991357e+00  -8.4457788e+00  -8.3915326e+00  -8.3371824e+00  -8.2827282e+00  -8.2286561e+00  -8.1750962e+00  -8.1220484e+00  -8.0706676e+00  -8.0202341e+00  -7.9707479e+00  -7.9226707e+00  -7.8750345e+00  -7.8278394e+00  -7.7824362e+00  -7.7393363e+00  -7.6985397e+00  -7.6648664e+00  -7.6340543e+00  -7.6061034e+00  -7.5773396e+00  -7.5439353e+00  -7.5058904e+00  -7.4531067e+00  -7.3928812e+00  -7.3252139e+00  -7.2464716e+00  -7.1648278e+00  -7.0802827e+00  -6.9952458e+00  -6.9123141e+00  -6.8314877e+00  -6.7581663e+00  -6.6891208e+00  -6.6243510e+00  -6.5668877e+00  -6.5118046e+00  -6.4591017e+00  -6.4087550e+00  -6.3589803e+00  -6.3097777e+00  -6.2619386e+00  -6.2153187e+00  -6.1699181e+00  -6.1278311e+00  -6.0872664e+00  -6.0482240e+00  -6.0106276e+00  -5.9726887e+00  -5.9344072e+00  -5.8939219e+00  -5.8521770e+00  -5.8091726e+00  -5.7642851e+00  -5.7189104e+00  -5.6730485e+00  -5.6269062e+00  -5.5807935e+00  -5.5347104e+00  -5.4887656e+00  -5.4428596e+00  -5.3969927e+00  -5.3510955e+00  -5.3051327e+00  -5.2591043e+00  -5.2128844e+00  -5.1665552e+00  -5.1201167e+00  -5.0734480e+00  -5.0266614e+00  -4.9797568e+00  -4.9326193e+00  -4.8853904e+00  -4.8380704e+00  -4.7906575e+00  -4.7432040e+00  -4.6957097e+00  -4.6478902e+00  -4.5996234e+00  -4.5509090e+00  -4.5005945e+00  -4.4492888e+00  -4.3969922e+00  -4.3430807e+00  -4.2889503e+00  -4.2346010e+00  -4.1814467e+00  -4.1297336e+00  -4.0794616e+00  -4.0335937e+00  -3.9904445e+00  -3.9500141e+00  -3.9148941e+00  -3.8815435e+00  -3.8499622e+00  -3.8190476e+00  -3.7871644e+00  -3.7543125e+00  -3.7180773e+00  -3.6797949e+00  -3.6394651e+00  -3.5940379e+00  -3.5452876e+00  -3.4932141e+00  -3.4333622e+00  -3.3699441e+00  -3.3029599e+00  -3.2318112e+00  -3.1607921e+00  -3.0899026e+00  -3.0232762e+00  -2.9596686e+00  -2.8990798e+00  -2.8433116e+00  -2.7881698e+00  -2.7336543e+00  -2.6761048e+00  -2.6153941e+00  -2.5515223e+00  -2.4801366e+00  -2.4055835e+00  -2.3278630e+00  -2.2470146e+00  -2.1668619e+00  -2.0874047e+00  -2.0143550e+00  -1.9468062e+00  -1.8847582e+00  -1.8367005e+00  -1.7956916e+00  -1.7617316e+00  -1.7386740e+00  -1.7184079e+00  -1.7009335e+00  -1.6838956e+00  -1.6655294e+00  -1.6458349e+00  -1.6226047e+00  -1.5974560e+00  -1.5703888e+00  -1.5377289e+00  -1.5005284e+00  -1.4587872e+00  -1.4052809e+00
-1.0157384e+01  -1.0116574e+01  -1.0079014e+01  -1.0043115e+01  -1.0008875e+01  -9.9770472e+00  -9.9458830e+00  -9.9153824e+00  -9.8853681e+00  -9.8551216e+00  -9.8246428e+00  -9.7921753e+00  -9.7578493e+00  -9.7216647e+00  -9.6809556e+00  -9.6384362e+00  -9.5941067e+00  -9.5483757e+00  -9.5031236e+00  -9.4583505e+00  -9.4159929e+00  -9.3749309e+00  -9.3351644e+00  -9.2971117e+00  -9.2592447e+00  -9.2215633e+00  -9.1831784e+00  -9.1442995e+00  -9.1049267e+00  -9.0650735e+00  -9.0253481e+00  -8.9857505e+00  -8.9466543e+00  -8.9075114e+00  -8.8683217e+00  -8.8278815e+00  -8.7862649e+00  -8.7434721e+00  -8.6977290e+00  -8.6504920e+00  -8.6017612e+00  -8.5504096e+00  -8.4980809e+00  -8.4447749e+00  -8.3903731e+00  -8.3358676e+00  -8.2812583e+00  -8.2272655e+00  -8.1739819e+00  -8.1214075e+00  -8.0709397e+00  -8.0215922e+00  -7.9733651e+00  -7.9266603e+00  -7.8802983e+00  -7.8342792e+00  -7.7896443e+00  -7.7471425e+00  -7.7067738e+00  -7.6734983e+00  -7.6432023e+00  -7.6158859e+00  -7.5879584e+00  -7.5553590e+00  -7.5180879e+00  -7.4658491e+00  -7.4061301e+00  -7.3389309e+00  -7.2608865e+00  -7.1801098e+00  -7.0966010e+00  -7.0126786e+00  -6.9306742e+00  -6.8505878e+00  -6.7773328e+00  -6.7080408e+00  -6.6427118e+00  -6.5843753e+00  -6.5284309e+00  -6.4748786e+00  -6.4238726e+00  -6.3735157e+00  -6.3238079e+00  -6.2754694e+00  -6.2282846e+00  -6.1822535e+00  -6.1393469e+00  -6.0978761e+00  -6.0578411e+00  -6.0191360e+00  -5.9800693e+00  -5.9406411e+00  -5.8990715e+00  -5.8563311e+00  -5.8124199e+00  -5.7668798e+00  -5.7209782e+00  -5.6747149e+00  -5.6283507e+00  -5.5820655e+00  -5.5358593e+00  -5.4898415e+00  -5.4438817e+00  -5.3979797e+00  -5.3520879e+00  -5.3061481e+00  -5.2601603e+00  -5.2140006e+00  -5.1677329e+00  -5.1213571e+00  -5.0747486e+00  -5.0280286e+00  -4.9811972e+00  -4.9341770e+00  -4.8870994e+00  -4.8399644e+00  -4.7927921e+00  -4.7455763e+00  -4.6983171e+00  -4.6506190e+00  -4.6023521e+00  -4.5535164e+00  -4.5027809e+00  -4.4509755e+00  -4.3981001e+00  -4.3438639e+00  -4.2897955e+00  -4.2358948e+00  -4.1842264e+00  -4.1343798e+00  -4.0863551e+00  -4.0427950e+00  -4.0016436e+00  -3.9629006e+00  -3.9285693e+00  -3.8956065e+00  -3.8640121e+00  -3.8324345e+00  -3.7995621e+00  -3.7653948e+00  -3.7271375e+00  -3.6865477e+00  -3.6436257e+00  -3.5954566e+00  -3.5441631e+00  -3.4897451e+00  -3.4283992e+00  -3.3640119e+00  -3.2965833e+00  -3.2259213e+00  -3.1556532e+00  -3.0857791e+00  -3.0201946e+00  -2.9574787e+00  -2.8976315e+00  -2.8423307e+00  -2.7876745e+00  -2.7336627e+00  -2.6770126e+00  -2.6174908e+00  -2.5550971e+00  -2.4856862e+00  -2.4132010e+00  -2.3376415e+00  -2.2586912e+00  -2.1800760e+00  -2.1017958e+00  -2.0288461e+00  -1.9607798e+00  -1.8975968e+00  -1.8473201e+00  -1.8038271e+00  -1.7671180e+00  -1.7416427e+00  -1.7195149e+00  -1.7007345e+00  -1.6837641e+00  -1.6659724e+00  -1.6473594e+00  -1.6255744e+00  -1.6017942e+00  -1.5760188e+00  -1.5442682e+00  -1.5077575e+00  -1.4664867e+00  -1.4129853e+00
-1.0161998e+01  -1.0123081e+01  -1.0086980e+01  -1.0052248e+01  -1.0018886e+01  -9.9873070e+00  -9.9560667e+00  -9.9251649e+00  -9.8941166e+00  -9.8625921e+00  -9.8305912e+00  -9.7964433e+00  -9.7605752e+00  -9.7229869e+00  -9.6815219e+00  -9.6386406e+00  -9.5943429e+00  -9.5492790e+00  -9.5048219e+00  -9.4609715e+00  -9.4193678e+00  -9.3788388e+00  -9.3393844e+00  -9.3011690e+00  -9.2629688e+00  -9.2247839e+00  -9.1857083e+00  -9.1460907e+00  -9.1059313e+00  -9.0652386e+00  -9.0246765e+00  -8.9842450e+00  -8.9444253e+00  -8.9046814e+00  -8.8650134e+00  -8.8244494e+00  -8.7828948e+00  -8.7403495e+00  -8.6951097e+00  -8.6483946e+00  -8.6002041e+00  -8.5492127e+00  -8.4971095e+00  -8.4438947e+00  -8.3894213e+00  -8.3348899e+00  -8.2803008e+00  -8.2266922e+00  -8.1740515e+00  -8.1223787e+00  -8.0733032e+00  -8.0254949e+00  -7.9789537e+00  -7.9339134e+00  -7.8890335e+00  -7.8443139e+00  -7.8003769e+00  -7.7582661e+00  -7.7179817e+00  -7.6843805e+00  -7.6536848e+00  -7.6258945e+00  -7.5975064e+00  -7.5644886e+00  -7.5268410e+00  -7.4744364e+00  -7.4147810e+00  -7.3478750e+00  -7.2707912e+00  -7.1912697e+00  -7.1093105e+00  -7.0270903e+00  -6.9465776e+00  -6.8677724e+00  -6.7950065e+00  -6.7258168e+00  -6.6602033e+00  -6.6011279e+00  -6.5444024e+00  -6.4900268e+00  -6.4383255e+00  -6.3873396e+00  -6.3370694e+00  -6.2881827e+00  -6.2403954e+00  -6.1937073e+00  -6.1499830e+00  -6.1076238e+00  -6.0666297e+00  -6.0268811e+00  -5.9867636e+00  -5.9462771e+00  -5.9037182e+00  -5.8600702e+00  -5.8153334e+00  -5.7691959e+00  -5.7228114e+00  -5.6761800e+00  -5.6296192e+00  -5.5831877e+00  -5.5368856e+00  -5.4908251e+00  -5.4448398e+00  -5.3989296e+00  -5.3530602e+00  -5.3071553e+00  -5.2612151e+00  -5.2151162e+00  -5.1689106e+00  -5.1225982e+00  -5.0760538e+00  -5.0294044e+00  -4.9826500e+00  -4.9357420e+00  -4.8888023e+00  -4.8418307e+00  -4.7948632e+00  -4.7478513e+00  -4.7007949e+00  -4.6532183e+00  -4.6049838e+00  -4.5560913e+00  -4.5050828e+00  -4.4529685e+00  -4.3997486e+00  -4.3454972e+00  -4.2918260e+00  -4.2387352e+00  -4.1889212e+00  -4.1412760e+00  -4.0957996e+00  -4.0546773e+00  -4.0155283e+00  -3.9783527e+00  -3.9444400e+00  -3.9114169e+00  -3.8792833e+00  -3.8464777e+00  -3.8120480e+00  -3.7759941e+00  -3.7350569e+00  -3.6914131e+00  -3.6450627e+00  -3.5931791e+00  -3.5384234e+00  -3.4807956e+00  -3.4175343e+00  -3.3520895e+00  -3.2844612e+00  -3.2151457e+00  -3.1466439e+00  -3.0789557e+00  -3.0155098e+00  -2.9546080e+00  -2.8962504e+00  -2.8417504e+00  -2.7877675e+00  -2.7343020e+00  -2.6785154e+00  -2.6201990e+00  -2.5593526e+00  -2.4921613e+00  -2.4220438e+00  -2.3490002e+00  -2.2722674e+00  -2.1954126e+00  -2.1184356e+00  -2.0454084e+00  -1.9764782e+00  -1.9116450e+00  -1.8583633e+00  -1.8115583e+00  -1.7712299e+00  -1.7426477e+00  -1.7181703e+00  -1.6977977e+00  -1.6810602e+00  -1.6641616e+00  -1.6471019e+00  -1.6273079e+00  -1.6053907e+00  -1.5813504e+00  -1.5508144e+00  -1.5152644e+00  -1.4747002e+00  -1.4214524e+00
