-2.3387366e+00  -2.3446278e+00  -2.3602604e+00  -2.3826958e+00  -2.3546932e+00  -2.3199612e+00  -2.4062362e+00  -2.4431072e+00  -2.4207821e+00  -2.4164696e+00  -2.4348374e+00  -2.4184512e+00  -2.4633730e+00  -2.4513271e+00  -2.4302842e+00  -2.4743781e+00  -2.5273096e+00  -2.5669185e+00  -2.5870251e+00  -2.5537985e+00  -2.5894830e+00  -2.6184542e+00  -2.5669702e+00  -2.6277943e+00  -2.6417361e+00  -2.6449346e+00  -2.6571605e+00  -2.6534195e+00  -2.6776591e+00  -2.6897124e+00  -2.7018449e+00  -2.6870318e+00  -2.7280750e+00  -2.7593685e+00  -2.8084167e+00  -2.7644666e+00  -2.7517603e+00  -2.7603200e+00  -2.7544319e+00  -2.7825936e+00  -2.8431257e+00  -2.8733741e+00  -2.8714967e+00  -2.9086732e+00  -2.9270840e+00  -2.8965829e+00  -2.9291506e+00  -2.9046061e+00  -2.8841236e+00  -2.9092875e+00  -2.8936747e+00  -2.8905645e+00  -2.9327850e+00  -2.9752004e+00  -2.9760965e+00  -2.9853080e+00  -2.9060983e+00  -2.9097366e+00  -2.9490398e+00  -2.9650672e+00  -2.9648977e+00  -2.9924053e+00  -2.9657972e+00  -2.9543708e+00  -2.9960251e+00  -3.0536439e+00  -3.0160413e+00  -2.9969812e+00  -3.0401060e+00  -2.9833968e+00  -2.9907238e+00  -3.0561064e+00  -3.0451263e+00  -3.0347047e+00  -3.0703424e+00  -3.0600377e+00  -3.0304487e+00  -2.9853972e+00  -2.9556972e+00  -3.0154733e+00  -3.0875804e+00  -3.0491948e+00  -3.0562560e+00  -3.0463072e+00  -3.0015700e+00  -3.0301037e+00  -3.0765393e+00  -3.0652853e+00  -3.0192722e+00  -3.0567709e+00  -3.0599006e+00  -3.0843940e+00  -3.1374097e+00  -3.0906094e+00  -3.0138009e+00  -3.0669443e+00  -3.0853659e+00  -3.0908563e+00  -3.1332128e+00  -3.1282395e+00  -3.0816825e+00  -3.0812080e+00  -3.0414456e+00  -2.9934564e+00  -3.0655593e+00  -3.1153457e+00  -3.1338280e+00  -3.1260296e+00  -3.1212733e+00  -3.1210289e+00  -3.1152235e+00  -3.1205366e+00  -3.1014715e+00  -3.1051255e+00  -3.1107370e+00  -3.1267870e+00  -3.1478316e+00  -3.1360834e+00  -3.0653219e+00  -3.0600195e+00  -3.0637750e+00  -3.0630945e+00  -3.0851448e+00  -3.0519931e+00  -2.9950718e+00  -3.0329295e+00  -3.0982025e+00  -3.0766026e+00  -3.1137336e+00  -3.1366472e+00  -3.1089874e+00  -3.0952089e+00  -3.1226791e+00  -3.1498803e+00  -3.1387406e+00  -3.1723368e+00  -3.1381597e+00  -3.1224592e+00  -3.1359402e+00  -3.1314100e+00  -3.1426858e+00  -3.1359291e+00  -3.1279990e+00  -3.1153875e+00  -3.1404447e+00  -3.1453658e+00  -3.1223378e+00  -3.1247674e+00  -3.1283759e+00  -3.1351039e+00  -3.1446482e+00  -3.1465438e+00  -3.1611808e+00  -3.1868510e+00  -3.1646499e+00  -3.1486273e+00  -3.1186067e+00  -3.1076164e+00  -3.2186843e+00  -3.2353188e+00  -3.2575618e+00  -3.2105945e+00  -3.2056703e+00  -3.2060522e+00  -3.1952479e+00  -3.1928363e+00  -3.2041440e+00  -3.2224757e+00  -3.2214042e+00  -3.2300159e+00  -3.2782738e+00  -3.2635494e+00  -3.2718567e+00  -3.2242409e+00  -3.2758665e+00  -3.2966458e+00  -3.2838756e+00  -3.3020380e+00  -3.2987436e+00  -3.3079436e+00  -3.2903647e+00  -3.3348075e+00  -3.3264674e+00  -3.3477076e+00  -3.3250860e+00  -3.3421907e+00
-2.3263916e+00  -2.3413041e+00  -2.3232961e+00  -2.3385513e+00  -2.3613569e+00  -2.3822454e+00  -2.3822618e+00  -2.3864639e+00  -2.4153837e+00  -2.4222369e+00  -2.3851055e+00  -2.4618045e+00  -2.4207846e+00  -2.4444223e+00  -2.4824466e+00  -2.4837629e+00  -2.4824858e+00  -2.5231460e+00  -2.5306475e+00  -2.5460829e+00  -2.5725162e+00  -2.5564588e+00  -2.5497166e+00  -2.6178957e+00  -2.6812187e+00  -2.6346132e+00  -2.6561605e+00  -2.6447517e+00  -2.6609500e+00  -2.6856085e+00  -2.7098080e+00  -2.7447053e+00  -2.7442409e+00  -2.7372315e+00  -2.7796250e+00  -2.7922726e+00  -2.7808585e+00  -2.7831924e+00  -2.7985518e+00  -2.8059881e+00  -2.8312209e+00  -2.8744737e+00  -2.8692905e+00  -2.8681790e+00  -2.9463845e+00  -2.9522912e+00  -2.8962685e+00  -2.8963119e+00  -2.9575623e+00  -2.9586980e+00  -2.9181222e+00  -2.9139213e+00  -2.9294422e+00  -2.9312946e+00  -2.9403855e+00  -2.9914147e+00  -2.9889228e+00  -2.9908509e+00  -3.0078043e+00  -3.0033113e+00  -3.0298340e+00  -3.0362214e+00  -2.9893432e+00  -2.9621011e+00  -3.0089431e+00  -3.0691800e+00  -3.0401389e+00  -2.9925572e+00  -3.0297874e+00  -3.0053729e+00  -3.0050666e+00  -2.9997207e+00  -3.0314896e+00  -3.0658510e+00  -3.0938059e+00  -3.0893310e+00  -3.0640948e+00  -3.0565633e+00  -3.0537246e+00  -3.0187045e+00  -3.0578382e+00  -3.0452467e+00  -3.0381085e+00  -3.0412294e+00  -3.0268621e+00  -3.0414751e+00  -3.1018915e+00  -3.0607203e+00  -2.9633312e+00  -2.9679802e+00  -3.0309966e+00  -3.0806254e+00  -3.1004595e+00  -3.1353976e+00  -3.0628796e+00  -3.0780847e+00  -3.1144567e+00  -3.1180426e+00  -3.1070658e+00  -3.0974525e+00  -3.0747685e+00  -3.0864467e+00  -3.0917824e+00  -3.0722410e+00  -3.0972591e+00  -3.1304732e+00  -3.1216407e+00  -3.1101153e+00  -3.1049584e+00  -3.1024024e+00  -3.1151818e+00  -3.1345074e+00  -3.1166874e+00  -3.0904806e+00  -3.1100269e+00  -3.1056216e+00  -3.0726195e+00  -3.0904731e+00  -3.0814284e+00  -3.0726207e+00  -3.0954562e+00  -3.0703155e+00  -3.0872305e+00  -3.1126595e+00  -3.1068232e+00  -3.0382016e+00  -3.0693222e+00  -3.0988034e+00  -3.1080886e+00  -3.1308629e+00  -3.1157721e+00  -3.0753481e+00  -3.1130185e+00  -3.1423328e+00  -3.1278962e+00  -3.1180805e+00  -3.0585517e+00  -3.1042461e+00  -3.0846634e+00  -3.1326092e+00  -3.1869482e+00  -3.1099832e+00  -3.1230806e+00  -3.1703225e+00  -3.1617283e+00  -3.1579825e+00  -3.1320835e+00  -3.1349658e+00  -3.1569106e+00  -3.1556449e+00  -3.1533518e+00  -3.2089235e+00  -3.2057501e+00  -3.1872033e+00  -3.1798089e+00  -3.1459315e+00  -3.1447965e+00  -3.1789725e+00  -3.2144417e+00  -3.2340273e+00  -3.2252979e+00  -3.2417045e+00  -3.2567546e+00  -3.2630779e+00  -3.2391549e+00  -3.2134076e+00  -3.1850277e+00  -3.1938419e+00  -3.2368494e+00  -3.2521512e+00  -3.2288227e+00  -3.2225685e+00  -3.2482083e+00  -3.2985933e+00  -3.2807798e+00  -3.2845264e+00  -3.3489151e+00  -3.3393145e+00  -3.3273592e+00  -3.3210584e+00  -3.2964255e+00  -3.2804744e+00  -3.3071087e+00  -3.3392009e+00  -3.3501191e+00  -3.3642833e+00
-2.2668549e+00  -2.2963481e+00  -2.3155739e+00  -2.3216937e+00  -2.3663018e+00  -2.3407885e+00  -2.3301942e+00  -2.3607594e+00  -2.3926871e+00  -2.4212659e+00  -2.4294959e+00  -2.4586502e+00  -2.4845943e+00  -2.4707274e+00  -2.5133313e+00  -2.5211472e+00  -2.4787588e+00  -2.5224717e+00  -2.5530941e+00  -2.5380891e+00  -2.5240008e+00  -2.5508244e+00  -2.6144557e+00  -2.6330291e+00  -2.5940287e+00  -2.6174810e+00  -2.6418780e+00  -2.6303122e+00  -2.6880522e+00  -2.7349459e+00  -2.7340556e+00  -2.7469072e+00  -2.7522171e+00  -2.7399052e+00  -2.7526010e+00  -2.8035820e+00  -2.8095302e+00  -2.7717207e+00  -2.7824778e+00  -2.7846408e+00  -2.8218402e+00  -2.8658310e+00  -2.8854524e+00  -2.8922231e+00  -2.8726335e+00  -2.9049642e+00  -2.9248061e+00  -2.9320988e+00  -2.9224071e+00  -2.9688332e+00  -2.9662908e+00  -2.9483155e+00  -2.9644370e+00  -2.9640287e+00  -2.9507090e+00  -2.9765243e+00  -3.0235139e+00  -2.9845631e+00  -2.9319169e+00  -2.9822842e+00  -2.9728907e+00  -2.9259850e+00  -2.9527740e+00  -2.9773014e+00  -2.9907505e+00  -3.0294724e+00  -3.0144652e+00  -3.0015865e+00  -3.0350998e+00  -3.0597363e+00  -3.0929422e+00  -3.0703924e+00  -3.0518335e+00  -3.0561393e+00  -3.0948474e+00  -3.0960907e+00  -3.0524994e+00  -3.0758609e+00  -3.0559969e+00  -3.0233377e+00  -3.0649694e+00  -3.0790528e+00  -3.0607244e+00  -3.1286195e+00  -3.1125041e+00  -3.0927733e+00  -3.1138860e+00  -3.0941203e+00  -3.0223109e+00  -2.9775961e+00  -3.0181070e+00  -3.0871942e+00  -3.1005476e+00  -3.1379017e+00  -3.1398396e+00  -3.1040537e+00  -3.1139559e+00  -3.1224792e+00  -3.1578786e+00  -3.1072946e+00  -3.0895761e+00  -3.1150942e+00  -3.0842602e+00  -3.0625565e+00  -3.1217452e+00  -3.1561188e+00  -3.1256772e+00  -3.1285513e+00  -3.1350859e+00  -3.1037604e+00  -3.0856041e+00  -3.0934856e+00  -3.0826530e+00  -3.0553096e+00  -3.0666539e+00  -3.0796336e+00  -3.1017199e+00  -3.1155416e+00  -3.0932362e+00  -3.0709076e+00  -3.0828269e+00  -3.0408014e+00  -3.0289486e+00  -3.0614446e+00  -3.1137780e+00  -3.1337819e+00  -3.1030019e+00  -3.1130923e+00  -3.1084413e+00  -3.0693136e+00  -3.0731858e+00  -3.1093373e+00  -3.1905786e+00  -3.1474896e+00  -3.1219812e+00  -3.0843764e+00  -3.0613058e+00  -3.0831192e+00  -3.1355533e+00  -3.1674505e+00  -3.1710009e+00  -3.1557637e+00  -3.1657514e+00  -3.2015520e+00  -3.2142400e+00  -3.1489607e+00  -3.1248784e+00  -3.1502179e+00  -3.1786580e+00  -3.1352890e+00  -3.1710416e+00  -3.2192163e+00  -3.2425924e+00  -3.1751699e+00  -3.1917618e+00  -3.2035676e+00  -3.1743759e+00  -3.1867183e+00  -3.2286204e+00  -3.2438395e+00  -3.2169595e+00  -3.2287057e+00  -3.2870739e+00  -3.2869318e+00  -3.2543528e+00  -3.2080402e+00  -3.3002049e+00  -3.2509376e+00  -3.2114037e+00  -3.1952772e+00  -3.2149676e+00  -3.2744062e+00  -3.2887278e+00  -3.2657027e+00  -3.2911530e+00  -3.3260118e+00  -3.2706823e+00  -3.3407085e+00  -3.3492500e+00  -3.3059491e+00  -3.3153839e+00  -3.3011849e+00  -3.3362332e+00  -3.3367917e+00  -3.3461104e+00  -3.3809325e+00
-2.2660582e+00  -2.2761173e+00  -2.2646990e+00  -2.2854938e+00  -2.3087514e+00  -2.3781597e+00  -2.3297961e+00  -2.3382249e+00  -2.3920764e+00  -2.4276293e+00  -2.4040774e+00  -2.4207491e+00  -2.4540178e+00  -2.4386843e+00  -2.4706750e+00  -2.5526568e+00  -2.5505059e+00  -2.5405639e+00  -2.5497384e+00  -2.5292291e+00  -2.5380790e+00  -2.5723218e+00  -2.6111267e+00  -2.6258133e+00  -2.6204866e+00  -2.6577348e+00  -2.6941878e+00  -2.6866814e+00  -2.6883878e+00  -2.7620790e+00  -2.7413053e+00  -2.7181058e+00  -2.7519801e+00  -2.7762908e+00  -2.7720550e+00  -2.7878609e+00  -2.8122294e+00  -2.8060393e+00  -2.7471189e+00  -2.7332119e+00  -2.8093629e+00  -2.8423452e+00  -2.8981857e+00  -2.9030452e+00  -2.8488873e+00  -2.8614107e+00  -2.9081051e+00  -2.9459402e+00  -2.9469169e+00  -2.9491963e+00  -3.0060041e+00  -2.9621425e+00  -2.9504340e+00  -2.9571156e+00  -2.9828799e+00  -2.9896665e+00  -2.9797716e+00  -2.9655011e+00  -2.9730138e+00  -2.9930491e+00  -2.9971650e+00  -2.9772934e+00  -2.9784025e+00  -2.9628920e+00  -2.9826449e+00  -2.9944275e+00  -2.9936387e+00  -2.9995882e+00  -3.0613842e+00  -3.0807111e+00  -3.1172514e+00  -3.1538616e+00  -3.0534614e+00  -3.0260864e+00  -3.1189651e+00  -3.1330833e+00  -3.0656602e+00  -3.0396413e+00  -3.0796444e+00  -3.0751326e+00  -3.0761479e+00  -3.0900245e+00  -3.0676099e+00  -3.0372644e+00  -3.0801843e+00  -3.0888982e+00  -3.1243971e+00  -3.1467789e+00  -3.1437489e+00  -3.1026005e+00  -3.0984955e+00  -3.0843006e+00  -3.1124049e+00  -3.1490512e+00  -3.1068372e+00  -3.0694839e+00  -3.0915462e+00  -3.0734498e+00  -3.1034208e+00  -3.1275649e+00  -3.1406937e+00  -3.1794299e+00  -3.1342305e+00  -3.1233746e+00  -3.1692846e+00  -3.2004771e+00  -3.1548424e+00  -3.1517604e+00  -3.1715442e+00  -3.1477210e+00  -3.0821719e+00  -3.0658773e+00  -3.0813244e+00  -3.0902279e+00  -3.1201942e+00  -3.0967842e+00  -3.0792964e+00  -3.0985682e+00  -3.1450097e+00  -3.1914661e+00  -3.1250365e+00  -3.0921307e+00  -3.1112158e+00  -3.0550145e+00  -3.0788256e+00  -3.1218373e+00  -3.1397155e+00  -3.1504079e+00  -3.1460682e+00  -3.1115018e+00  -3.1229361e+00  -3.1344290e+00  -3.1952224e+00  -3.1371543e+00  -3.0866015e+00  -3.1102962e+00  -3.1395385e+00  -3.1131259e+00  -3.0919210e+00  -3.1150639e+00  -3.1631488e+00  -3.1872270e+00  -3.2167162e+00  -3.2813681e+00  -3.1890551e+00  -3.1192168e+00  -3.1254202e+00  -3.1782373e+00  -3.1622164e+00  -3.1564746e+00  -3.1537839e+00  -3.1604563e+00  -3.1769945e+00  -3.1935396e+00  -3.2010955e+00  -3.2734089e+00  -3.2233347e+00  -3.2153296e+00  -3.2293686e+00  -3.2139113e+00  -3.2192848e+00  -3.2418207e+00  -3.2576078e+00  -3.2752912e+00  -3.3112922e+00  -3.3039902e+00  -3.2932125e+00  -3.2617710e+00  -3.2566561e+00  -3.2678783e+00  -3.2405140e+00  -3.2626492e+00  -3.2918577e+00  -3.2939148e+00  -3.3203044e+00  -3.3264990e+00  -3.3289713e+00  -3.3441382e+00  -3.3540799e+00  -3.3647802e+00  -3.3999855e+00  -3.3674293e+00  -3.3280711e+00  -3.2845578e+00  -3.2901460e+00  -3.3606764e+00
-2.2408300e+00  -2.2509065e+00  -2.2903417e+00  -2.3232048e+00  -2.3142580e+00  -2.3242663e+00  -2.3949783e+00  -2.3939168e+00  -2.3888379e+00  -2.4263971e+00  -2.4050728e+00  -2.4003371e+00  -2.4817818e+00  -2.5186835e+00  -2.4798806e+00  -2.5053084e+00  -2.5439612e+00  -2.5479932e+00  -2.6011502e+00  -2.5833534e+00  -2.5766360e+00  -2.5890840e+00  -2.6261024e+00  -2.6202010e+00  -2.6101849e+00  -2.6418870e+00  -2.6868522e+00  -2.7199385e+00  -2.7179929e+00  -2.7359275e+00  -2.7586217e+00  -2.7125397e+00  -2.7424203e+00  -2.7917097e+00  -2.7841455e+00  -2.7826672e+00  -2.7919432e+00  -2.8072864e+00  -2.7987016e+00  -2.7914217e+00  -2.8570641e+00  -2.8692775e+00  -2.8673723e+00  -2.8646876e+00  -2.9008610e+00  -2.8974222e+00  -2.9077960e+00  -2.9401309e+00  -2.9608576e+00  -2.9654922e+00  -2.9936741e+00  -2.9626122e+00  -2.9072589e+00  -2.9471453e+00  -2.9985294e+00  -2.9842925e+00  -2.9815416e+00  -2.9727002e+00  -3.0117067e+00  -3.0182073e+00  -2.9783850e+00  -2.9588076e+00  -3.0146606e+00  -2.9987915e+00  -2.9513961e+00  -3.0277658e+00  -3.0201399e+00  -2.9896205e+00  -3.0478093e+00  -3.0709630e+00  -3.0618198e+00  -3.0818464e+00  -3.0984299e+00  -3.0683249e+00  -3.1092554e+00  -3.1167386e+00  -3.0865008e+00  -3.0876698e+00  -3.1048253e+00  -3.0955566e+00  -3.0763553e+00  -3.0875138e+00  -3.0959331e+00  -3.0756977e+00  -3.0502992e+00  -3.0492752e+00  -3.0949066e+00  -3.1221722e+00  -3.0592357e+00  -3.0563761e+00  -3.0282607e+00  -3.0260893e+00  -3.1328949e+00  -3.1727699e+00  -3.1350158e+00  -3.1345820e+00  -3.1514668e+00  -3.1430430e+00  -3.1391991e+00  -3.1695304e+00  -3.1347491e+00  -3.1315867e+00  -3.1487444e+00  -3.1764846e+00  -3.1544622e+00  -3.1479204e+00  -3.1077963e+00  -3.0973491e+00  -3.1313761e+00  -3.1295941e+00  -3.1118993e+00  -3.1253204e+00  -3.0928279e+00  -3.1529999e+00  -3.1917081e+00  -3.1471978e+00  -3.1375524e+00  -3.1629248e+00  -3.2084262e+00  -3.2019210e+00  -3.1409733e+00  -3.1353705e+00  -3.1507013e+00  -3.1363386e+00  -3.1326019e+00  -3.1599472e+00  -3.1994621e+00  -3.2018723e+00  -3.1703292e+00  -3.1308598e+00  -3.1207390e+00  -3.1722769e+00  -3.1911658e+00  -3.1339460e+00  -3.1343556e+00  -3.1500846e+00  -3.1470409e+00  -3.1380845e+00  -3.1416496e+00  -3.1079850e+00  -3.1128412e+00  -3.1534762e+00  -3.2167841e+00  -3.3100786e+00  -3.2141565e+00  -3.1564729e+00  -3.1992148e+00  -3.1743191e+00  -3.1479161e+00  -3.1511249e+00  -3.1467778e+00  -3.1745912e+00  -3.1994295e+00  -3.2005408e+00  -3.2514550e+00  -3.2490784e+00  -3.2658043e+00  -3.2381391e+00  -3.1981826e+00  -3.1978677e+00  -3.2596182e+00  -3.2657153e+00  -3.2744942e+00  -3.2834520e+00  -3.2684197e+00  -3.2753758e+00  -3.2860095e+00  -3.2553465e+00  -3.2899831e+00  -3.2742000e+00  -3.2130668e+00  -3.2890350e+00  -3.3081890e+00  -3.3298170e+00  -3.3452792e+00  -3.3237590e+00  -3.3230867e+00  -3.3451999e+00  -3.3864250e+00  -3.3861970e+00  -3.3822962e+00  -3.3773562e+00  -3.3381376e+00  -3.3340137e+00  -3.3946640e+00  -3.3846543e+00
-2.2073404e+00  -2.2672055e+00  -2.3029397e+00  -2.3354376e+00  -2.3389880e+00  -2.3836589e+00  -2.3853359e+00  -2.3934358e+00  -2.3992792e+00  -2.4371285e+00  -2.4707326e+00  -2.4476974e+00  -2.4539790e+00  -2.5161763e+00  -2.5257216e+00  -2.4986203e+00  -2.5205965e+00  -2.5589993e+00  -2.5851897e+00  -2.5692682e+00  -2.6036287e+00  -2.5917801e+00  -2.5683739e+00  -2.5968244e+00  -2.6484786e+00  -2.6368972e+00  -2.6791046e+00  -2.7329907e+00  -2.7215766e+00  -2.7256082e+00  -2.7573669e+00  -2.7832578e+00  -2.7559794e+00  -2.7755629e+00  -2.8050555e+00  -2.8027796e+00  -2.7904475e+00  -2.8117227e+00  -2.8414587e+00  -2.8520248e+00  -2.8631614e+00  -2.8539966e+00  -2.8467876e+00  -2.8127154e+00  -2.8729354e+00  -2.9091413e+00  -2.9159235e+00  -2.9389543e+00  -2.9483067e+00  -2.9374022e+00  -2.9354703e+00  -2.9808980e+00  -3.0094474e+00  -3.0069961e+00  -2.9412122e+00  -3.0078843e+00  -3.0036618e+00  -2.9854712e+00  -3.0078711e+00  -3.0346492e+00  -2.9820034e+00  -2.9587762e+00  -3.0241173e+00  -3.0166791e+00  -2.9643360e+00  -2.9758418e+00  -3.0146810e+00  -3.0132275e+00  -3.0274791e+00  -3.0754512e+00  -3.0501112e+00  -3.0420789e+00  -3.0725011e+00  -3.0888402e+00  -3.0565012e+00  -3.0604882e+00  -3.0915722e+00  -3.1115941e+00  -3.1377569e+00  -3.1582911e+00  -3.1314174e+00  -3.1413803e+00  -3.1651968e+00  -3.1582838e+00  -3.1267053e+00  -3.0955955e+00  -3.1152868e+00  -3.1335718e+00  -3.0961365e+00  -3.0693097e+00  -3.0580385e+00  -3.0662881e+00  -3.0805354e+00  -3.1528586e+00  -3.2044701e+00  -3.1623726e+00  -3.1500665e+00  -3.1365559e+00  -3.1112564e+00  -3.1053373e+00  -3.1197961e+00  -3.1331732e+00  -3.1742312e+00  -3.1748542e+00  -3.0939518e+00  -3.0592705e+00  -3.0363041e+00  -3.0843129e+00  -3.1543196e+00  -3.1872858e+00  -3.1537050e+00  -3.1183269e+00  -3.1449041e+00  -3.1381244e+00  -3.1202556e+00  -3.1332661e+00  -3.1470039e+00  -3.1555656e+00  -3.1526961e+00  -3.1442633e+00  -3.1405996e+00  -3.1549913e+00  -3.1629405e+00  -3.1743006e+00  -3.1383783e+00  -3.1852579e+00  -3.2079122e+00  -3.2026344e+00  -3.1481646e+00  -3.1267953e+00  -3.1366514e+00  -3.1663315e+00  -3.1803629e+00  -3.1692621e+00  -3.1903057e+00  -3.1971369e+00  -3.2402972e+00  -3.1981256e+00  -3.2171913e+00  -3.1740567e+00  -3.1834285e+00  -3.1881218e+00  -3.2081897e+00  -3.2080779e+00  -3.2133804e+00  -3.1993050e+00  -3.2255869e+00  -3.2206269e+00  -3.1816163e+00  -3.1721800e+00  -3.1812838e+00  -3.1620380e+00  -3.2171481e+00  -3.2539944e+00  -3.2518478e+00  -3.2619335e+00  -3.2512930e+00  -3.2512988e+00  -3.2457405e+00  -3.2536016e+00  -3.2448275e+00  -3.3132617e+00  -3.3002489e+00  -3.2962043e+00  -3.3069681e+00  -3.3046008e+00  -3.3030560e+00  -3.2954486e+00  -3.3186100e+00  -3.3155725e+00  -3.3585200e+00  -3.3076907e+00  -3.3398979e+00  -3.3711825e+00  -3.3553486e+00  -3.3672158e+00  -3.3620327e+00  -3.3651430e+00  -3.3823677e+00  -3.3990306e+00  -3.4281740e+00  -3.4149699e+00  -3.3626187e+00  -3.3631429e+00  -3.3746984e+00  -3.3888289e+00
-2.2014585e+00  -2.2121989e+00  -2.3169340e+00  -2.3082962e+00  -2.3311640e+00  -2.3738810e+00  -2.3869752e+00  -2.3969363e+00  -2.4073996e+00  -2.4156098e+00  -2.4940377e+00  -2.5053635e+00  -2.4398562e+00  -2.4707565e+00  -2.5435746e+00  -2.5363661e+00  -2.5221556e+00  -2.5218126e+00  -2.5532415e+00  -2.5676184e+00  -2.5760127e+00  -2.5707642e+00  -2.5637794e+00  -2.6125488e+00  -2.6862857e+00  -2.6505924e+00  -2.6849308e+00  -2.7359570e+00  -2.7517384e+00  -2.7159833e+00  -2.7331469e+00  -2.8010327e+00  -2.8070440e+00  -2.7993419e+00  -2.7858400e+00  -2.8272603e+00  -2.8099344e+00  -2.7890894e+00  -2.8168275e+00  -2.8279957e+00  -2.8278970e+00  -2.8713094e+00  -2.9135341e+00  -2.8674766e+00  -2.8309183e+00  -2.8951292e+00  -2.9123020e+00  -2.9277014e+00  -2.9307385e+00  -2.9658327e+00  -2.9908598e+00  -2.9798215e+00  -2.9793016e+00  -2.9792881e+00  -2.9761352e+00  -2.9908236e+00  -3.0166175e+00  -2.9751490e+00  -2.9679665e+00  -3.0317180e+00  -3.0450723e+00  -3.0259681e+00  -3.0021930e+00  -3.0090098e+00  -3.0444098e+00  -3.0849166e+00  -3.0832246e+00  -3.0752185e+00  -3.0621691e+00  -3.0720007e+00  -3.0753480e+00  -3.1120260e+00  -3.1352557e+00  -3.1224323e+00  -3.1038836e+00  -3.0936977e+00  -3.0892371e+00  -3.1085545e+00  -3.1002712e+00  -3.0648291e+00  -3.1238459e+00  -3.1350093e+00  -3.1315321e+00  -3.1217562e+00  -3.1107727e+00  -3.1059781e+00  -3.0896164e+00  -3.0886784e+00  -3.0771862e+00  -3.0983650e+00  -3.1157325e+00  -3.0851529e+00  -3.1028026e+00  -3.1182141e+00  -3.1642009e+00  -3.1534245e+00  -3.1390889e+00  -3.1129597e+00  -3.1039942e+00  -3.1093221e+00  -3.1215366e+00  -3.1586753e+00  -3.1696993e+00  -3.1762078e+00  -3.1172496e+00  -3.1072848e+00  -3.1072714e+00  -3.1469366e+00  -3.1893534e+00  -3.1886093e+00  -3.1807579e+00  -3.1682294e+00  -3.1611208e+00  -3.1678005e+00  -3.1433487e+00  -3.1329449e+00  -3.1609940e+00  -3.1551808e+00  -3.1627150e+00  -3.2138565e+00  -3.2101094e+00  -3.2068539e+00  -3.2059824e+00  -3.1928574e+00  -3.1826341e+00  -3.2199809e+00  -3.2081805e+00  -3.1693915e+00  -3.2071027e+00  -3.2202367e+00  -3.2067076e+00  -3.2104599e+00  -3.2067661e+00  -3.2257614e+00  -3.2551135e+00  -3.2051921e+00  -3.1792291e+00  -3.2235203e+00  -3.2234388e+00  -3.2200645e+00  -3.1976345e+00  -3.2020804e+00  -3.1884523e+00  -3.2024573e+00  -3.2233602e+00  -3.2336323e+00  -3.2823052e+00  -3.2824136e+00  -3.2087312e+00  -3.1963607e+00  -3.2034818e+00  -3.2365967e+00  -3.2628306e+00  -3.2188630e+00  -3.2607339e+00  -3.2676127e+00  -3.2539155e+00  -3.2590696e+00  -3.2536558e+00  -3.2686025e+00  -3.2949580e+00  -3.2725883e+00  -3.2897710e+00  -3.2827615e+00  -3.2645402e+00  -3.2914669e+00  -3.2958552e+00  -3.2831043e+00  -3.3053574e+00  -3.3325393e+00  -3.3195451e+00  -3.3420543e+00  -3.3683643e+00  -3.3515909e+00  -3.3685579e+00  -3.3647731e+00  -3.3473552e+00  -3.3692623e+00  -3.3733458e+00  -3.3438644e+00  -3.3505831e+00  -3.3455018e+00  -3.3586987e+00  -3.3540851e+00  -3.3499312e+00  -3.3677448e+00
-2.2409476e+00  -2.2819265e+00  -2.2744476e+00  -2.2608993e+00  -2.3365795e+00  -2.3532570e+00  -2.3580368e+00  -2.4239325e+00  -2.4389826e+00  -2.4207122e+00  -2.4241033e+00  -2.4637442e+00  -2.4738646e+00  -2.4762580e+00  -2.5525045e+00  -2.5731541e+00  -2.5261696e+00  -2.4943937e+00  -2.5084767e+00  -2.5484086e+00  -2.5809974e+00  -2.5785656e+00  -2.6130924e+00  -2.6168623e+00  -2.6926960e+00  -2.6892188e+00  -2.6881257e+00  -2.7093054e+00  -2.7297673e+00  -2.7177454e+00  -2.7113753e+00  -2.7353811e+00  -2.7843870e+00  -2.8358753e+00  -2.7992240e+00  -2.7881646e+00  -2.8361237e+00  -2.8217395e+00  -2.7891071e+00  -2.8399767e+00  -2.8349291e+00  -2.8366311e+00  -2.8757380e+00  -2.8916564e+00  -2.8755042e+00  -2.8632657e+00  -2.8449652e+00  -2.9117920e+00  -2.9195842e+00  -2.9156563e+00  -2.9580736e+00  -2.9456515e+00  -2.9473507e+00  -2.9744176e+00  -3.0111596e+00  -3.0047135e+00  -2.9922802e+00  -3.0121524e+00  -2.9883196e+00  -2.9829398e+00  -3.0200667e+00  -3.0686354e+00  -3.0178308e+00  -2.9799505e+00  -3.0228821e+00  -3.0473789e+00  -3.0733364e+00  -3.0694298e+00  -3.0517753e+00  -3.0770922e+00  -3.0739461e+00  -3.0454674e+00  -3.0835098e+00  -3.1056784e+00  -3.0599076e+00  -3.0138408e+00  -3.0255636e+00  -3.0670891e+00  -3.0846108e+00  -3.0877115e+00  -3.0752480e+00  -3.1192298e+00  -3.1425528e+00  -3.0782548e+00  -3.1060993e+00  -3.1251477e+00  -3.1311303e+00  -3.1446403e+00  -3.1572092e+00  -3.1307314e+00  -3.1610569e+00  -3.1732760e+00  -3.1437837e+00  -3.1373026e+00  -3.1814464e+00  -3.2383437e+00  -3.2241662e+00  -3.1543834e+00  -3.1425665e+00  -3.1700345e+00  -3.2166714e+00  -3.2026294e+00  -3.1678330e+00  -3.2072924e+00  -3.1763759e+00  -3.1178857e+00  -3.1104020e+00  -3.1782944e+00  -3.1636026e+00  -3.1584104e+00  -3.1963911e+00  -3.2178203e+00  -3.2318727e+00  -3.2428073e+00  -3.1919537e+00  -3.1817767e+00  -3.2194117e+00  -3.2715454e+00  -3.1997133e+00  -3.2154524e+00  -3.2429476e+00  -3.2446952e+00  -3.2282812e+00  -3.2299088e+00  -3.2276351e+00  -3.2262425e+00  -3.2319591e+00  -3.2252777e+00  -3.2150234e+00  -3.2371737e+00  -3.2285150e+00  -3.2427552e+00  -3.2391537e+00  -3.2206479e+00  -3.2253204e+00  -3.2306844e+00  -3.2418649e+00  -3.2397686e+00  -3.2277381e+00  -3.2063466e+00  -3.2319801e+00  -3.2502157e+00  -3.2951859e+00  -3.2718967e+00  -3.2591620e+00  -3.2773608e+00  -3.2801875e+00  -3.2903333e+00  -3.2831166e+00  -3.2932064e+00  -3.3160799e+00  -3.3329066e+00  -3.3250640e+00  -3.2636802e+00  -3.2539522e+00  -3.2759277e+00  -3.2736898e+00  -3.2704052e+00  -3.2622886e+00  -3.2709721e+00  -3.2895738e+00  -3.3216961e+00  -3.3496255e+00  -3.3589809e+00  -3.2996732e+00  -3.2830701e+00  -3.2801267e+00  -3.3251462e+00  -3.3525190e+00  -3.3596039e+00  -3.3494375e+00  -3.3246131e+00  -3.3153714e+00  -3.3301197e+00  -3.3269925e+00  -3.3646086e+00  -3.3828063e+00  -3.3378066e+00  -3.3557946e+00  -3.3827420e+00  -3.3872454e+00  -3.3972318e+00  -3.3878381e+00  -3.3872026e+00  -3.3930212e+00  -3.4102119e+00
-2.2686007e+00  -2.2822374e+00  -2.2941982e+00  -2.2757111e+00  -2.2720251e+00  -2.3370579e+00  -2.3975928e+00  -2.4266206e+00  -2.4465757e+00  -2.4466407e+00  -2.4047131e+00  -2.4297246e+00  -2.4943443e+00  -2.4870737e+00  -2.5090127e+00  -2.5417562e+00  -2.5439217e+00  -2.5175939e+00  -2.5576601e+00  -2.6166816e+00  -2.6199758e+00  -2.6176566e+00  -2.6187765e+00  -2.6045303e+00  -2.6580629e+00  -2.7074726e+00  -2.7475070e+00  -2.7259425e+00  -2.7043170e+00  -2.7290568e+00  -2.7226290e+00  -2.7097604e+00  -2.7423952e+00  -2.7876122e+00  -2.7957991e+00  -2.8229368e+00  -2.8145836e+00  -2.8375369e+00  -2.7968800e+00  -2.7951143e+00  -2.8464670e+00  -2.8354984e+00  -2.8772000e+00  -2.8919652e+00  -2.9103009e+00  -2.9124139e+00  -2.8964279e+00  -2.8991832e+00  -2.9551724e+00  -2.9363432e+00  -2.9378210e+00  -2.9379914e+00  -2.9413421e+00  -2.9853178e+00  -3.0053261e+00  -2.9894691e+00  -2.9543351e+00  -2.9462845e+00  -2.9368635e+00  -2.9589727e+00  -2.9930370e+00  -3.0095464e+00  -2.9699372e+00  -3.0412818e+00  -3.0326657e+00  -3.0365566e+00  -3.0718135e+00  -3.0918954e+00  -3.0712403e+00  -3.0773971e+00  -3.0827273e+00  -3.0535624e+00  -3.0715680e+00  -3.1251854e+00  -3.0410007e+00  -3.0437156e+00  -3.0622023e+00  -3.0771486e+00  -3.1149401e+00  -3.1104332e+00  -3.1192436e+00  -3.1244949e+00  -3.0648389e+00  -3.0989253e+00  -3.1385196e+00  -3.1502590e+00  -3.1665045e+00  -3.1818335e+00  -3.1835110e+00  -3.1832658e+00  -3.2082233e+00  -3.2263060e+00  -3.2182559e+00  -3.2006443e+00  -3.2359988e+00  -3.2361470e+00  -3.2201805e+00  -3.1958280e+00  -3.2024123e+00  -3.1905909e+00  -3.1708528e+00  -3.1584656e+00  -3.1386698e+00  -3.1657744e+00  -3.1817208e+00  -3.1777078e+00  -3.1835676e+00  -3.2200173e+00  -3.2222589e+00  -3.1930301e+00  -3.2211321e+00  -3.2212190e+00  -3.2438312e+00  -3.2716576e+00  -3.2646796e+00  -3.2614103e+00  -3.2404714e+00  -3.2475212e+00  -3.2097408e+00  -3.2398626e+00  -3.2494539e+00  -3.2586846e+00  -3.2861928e+00  -3.2745914e+00  -3.2677066e+00  -3.2445439e+00  -3.2369459e+00  -3.2714367e+00  -3.2763444e+00  -3.2530563e+00  -3.2904899e+00  -3.2608863e+00  -3.2658902e+00  -3.2743598e+00  -3.2555157e+00  -3.2821716e+00  -3.2703002e+00  -3.2734229e+00  -3.2631831e+00  -3.2524733e+00  -3.2508536e+00  -3.2666687e+00  -3.2857450e+00  -3.2759862e+00  -3.2965039e+00  -3.2642106e+00  -3.2939948e+00  -3.2865072e+00  -3.2952542e+00  -3.3378933e+00  -3.3252851e+00  -3.3054836e+00  -3.2878869e+00  -3.3152595e+00  -3.3297824e+00  -3.3035354e+00  -3.2694540e+00  -3.3009574e+00  -3.3015556e+00  -3.2990053e+00  -3.3255713e+00  -3.3331341e+00  -3.3685479e+00  -3.3350987e+00  -3.3225338e+00  -3.3323936e+00  -3.3221556e+00  -3.3317182e+00  -3.3740270e+00  -3.3792482e+00  -3.3599121e+00  -3.3619125e+00  -3.3689229e+00  -3.3583201e+00  -3.3565301e+00  -3.3758775e+00  -3.3742243e+00  -3.3768663e+00  -3.3934730e+00  -3.4099823e+00  -3.3966164e+00  -3.4101706e+00  -3.4020931e+00  -3.3920691e+00  -3.3992091e+00  -3.4268338e+00
-2.2696345e+00  -2.2601905e+00  -2.2943917e+00  -2.3554120e+00  -2.3631814e+00  -2.3150125e+00  -2.4021804e+00  -2.4276612e+00  -2.4596848e+00  -2.4519527e+00  -2.4018944e+00  -2.4321971e+00  -2.4945405e+00  -2.5281138e+00  -2.5049888e+00  -2.4948307e+00  -2.5607607e+00  -2.6055431e+00  -2.5640801e+00  -2.5846288e+00  -2.6347900e+00  -2.6395366e+00  -2.6445827e+00  -2.6808535e+00  -2.6979557e+00  -2.6726529e+00  -2.6908057e+00  -2.7539725e+00  -2.7645736e+00  -2.7211359e+00  -2.7271223e+00  -2.7513642e+00  -2.7251591e+00  -2.7859134e+00  -2.8158023e+00  -2.8041211e+00  -2.7911014e+00  -2.8415057e+00  -2.8618700e+00  -2.8043471e+00  -2.8099051e+00  -2.8461381e+00  -2.8859790e+00  -2.8856416e+00  -2.8775082e+00  -2.8801460e+00  -2.8894008e+00  -2.8964876e+00  -2.9149206e+00  -2.9560192e+00  -2.9418054e+00  -2.9327123e+00  -2.9529932e+00  -2.9300768e+00  -3.0078137e+00  -3.0003533e+00  -3.0025378e+00  -2.9811216e+00  -2.9689728e+00  -2.9532823e+00  -2.9856354e+00  -2.9951779e+00  -2.9974528e+00  -3.0188516e+00  -3.0546671e+00  -3.0242110e+00  -3.0207037e+00  -3.0855397e+00  -3.0871264e+00  -3.0627339e+00  -3.0638006e+00  -3.0967079e+00  -3.1081769e+00  -3.0815978e+00  -3.0554654e+00  -3.0924779e+00  -3.1238577e+00  -3.1399867e+00  -3.1028505e+00  -3.1352069e+00  -3.1702492e+00  -3.1566878e+00  -3.1137537e+00  -3.1062137e+00  -3.1278576e+00  -3.1661945e+00  -3.2265842e+00  -3.1910220e+00  -3.1585227e+00  -3.1949946e+00  -3.2018191e+00  -3.1868099e+00  -3.2034295e+00  -3.2141625e+00  -3.2158744e+00  -3.2599257e+00  -3.2273625e+00  -3.2089005e+00  -3.2190027e+00  -3.2305398e+00  -3.2171105e+00  -3.2368261e+00  -3.2208855e+00  -3.1555239e+00  -3.1542658e+00  -3.1476255e+00  -3.1649454e+00  -3.2092441e+00  -3.2196499e+00  -3.2682205e+00  -3.2505242e+00  -3.2878376e+00  -3.2470501e+00  -3.2772254e+00  -3.2912349e+00  -3.2647020e+00  -3.2498174e+00  -3.2665856e+00  -3.2742401e+00  -3.2593409e+00  -3.2501762e+00  -3.2722415e+00  -3.3063251e+00  -3.3076027e+00  -3.3022870e+00  -3.2713246e+00  -3.2842460e+00  -3.2988410e+00  -3.2887815e+00  -3.2812395e+00  -3.3050011e+00  -3.2880263e+00  -3.2789915e+00  -3.2672410e+00  -3.3101507e+00  -3.2782611e+00  -3.3115113e+00  -3.2801655e+00  -3.2974724e+00  -3.3185099e+00  -3.2926745e+00  -3.2992201e+00  -3.3240405e+00  -3.3129326e+00  -3.3161243e+00  -3.3638878e+00  -3.3198656e+00  -3.2726135e+00  -3.3185887e+00  -3.3587713e+00  -3.3450540e+00  -3.3084376e+00  -3.2986201e+00  -3.3450074e+00  -3.3534370e+00  -3.3287337e+00  -3.3533898e+00  -3.3313522e+00  -3.3256657e+00  -3.3436966e+00  -3.3645524e+00  -3.3526920e+00  -3.3523387e+00  -3.3451767e+00  -3.3544690e+00  -3.3770337e+00  -3.3269506e+00  -3.3253285e+00  -3.3627760e+00  -3.3516149e+00  -3.3944012e+00  -3.3960337e+00  -3.3902159e+00  -3.3835765e+00  -3.3667577e+00  -3.3756113e+00  -3.3801134e+00  -3.3574034e+00  -3.3852324e+00  -3.3888441e+00  -3.4305474e+00  -3.4128594e+00  -3.4114613e+00  -3.4505047e+00  -3.4725047e+00  -3.4613047e+00
-2.3044826e+00  -2.2792478e+00  -2.2920772e+00  -2.3472093e+00  -2.3877176e+00  -2.3671675e+00  -2.3809382e+00  -2.4511445e+00  -2.4308651e+00  -2.3944375e+00  -2.3915584e+00  -2.4403022e+00  -2.4876084e+00  -2.5139399e+00  -2.5286836e+00  -2.5415126e+00  -2.5572330e+00  -2.6238829e+00  -2.6137855e+00  -2.5998325e+00  -2.6088297e+00  -2.6554163e+00  -2.6479561e+00  -2.6774620e+00  -2.6732664e+00  -2.6611410e+00  -2.6746231e+00  -2.6818564e+00  -2.7403389e+00  -2.7531766e+00  -2.7846983e+00  -2.7669856e+00  -2.7725893e+00  -2.8288410e+00  -2.8172252e+00  -2.7712043e+00  -2.8175970e+00  -2.8850318e+00  -2.8651414e+00  -2.8492027e+00  -2.8620881e+00  -2.8222629e+00  -2.8861430e+00  -2.9380718e+00  -2.8806252e+00  -2.9042901e+00  -2.9004460e+00  -2.8841933e+00  -2.8878467e+00  -2.9065495e+00  -2.8904745e+00  -2.9141545e+00  -2.9609419e+00  -2.9716579e+00  -2.9577589e+00  -2.9755591e+00  -2.9815840e+00  -3.0079338e+00  -3.0439457e+00  -3.0605260e+00  -3.0548727e+00  -3.0387542e+00  -2.9904917e+00  -2.9984371e+00  -3.0539504e+00  -3.0692207e+00  -3.0413542e+00  -3.0807353e+00  -3.0969968e+00  -3.0717751e+00  -3.0690512e+00  -3.1002968e+00  -3.1119140e+00  -3.1087259e+00  -3.1186058e+00  -3.1207492e+00  -3.1366091e+00  -3.0977938e+00  -3.1132801e+00  -3.1559859e+00  -3.1927136e+00  -3.2043854e+00  -3.1588734e+00  -3.1387753e+00  -3.1449785e+00  -3.1640999e+00  -3.2042845e+00  -3.2417501e+00  -3.1871682e+00  -3.2264836e+00  -3.1983285e+00  -3.1911672e+00  -3.2392529e+00  -3.2269730e+00  -3.2177269e+00  -3.2385475e+00  -3.2390657e+00  -3.2450552e+00  -3.2563261e+00  -3.2640692e+00  -3.2877138e+00  -3.3411149e+00  -3.2828565e+00  -3.2477269e+00  -3.2072081e+00  -3.1732149e+00  -3.2096544e+00  -3.2402139e+00  -3.2522275e+00  -3.2772477e+00  -3.3000602e+00  -3.3096107e+00  -3.3382130e+00  -3.3149745e+00  -3.3360656e+00  -3.3475446e+00  -3.2986691e+00  -3.2951805e+00  -3.3007069e+00  -3.2687407e+00  -3.2721190e+00  -3.3332312e+00  -3.3370997e+00  -3.3085449e+00  -3.3203506e+00  -3.2871808e+00  -3.2849049e+00  -3.3153559e+00  -3.3096173e+00  -3.2872968e+00  -3.2935248e+00  -3.3140364e+00  -3.3062264e+00  -3.3052857e+00  -3.3165453e+00  -3.3067974e+00  -3.3742307e+00  -3.3245499e+00  -3.3166323e+00  -3.3131190e+00  -3.3034554e+00  -3.3310112e+00  -3.3260033e+00  -3.3150775e+00  -3.3702793e+00  -3.3883249e+00  -3.3653180e+00  -3.3247899e+00  -3.3632876e+00  -3.3783925e+00  -3.3861502e+00  -3.3669607e+00  -3.3573209e+00  -3.3505499e+00  -3.3576442e+00  -3.3455454e+00  -3.3249440e+00  -3.3534234e+00  -3.3611616e+00  -3.3980817e+00  -3.4046953e+00  -3.3888089e+00  -3.4141754e+00  -3.3953233e+00  -3.3887748e+00  -3.3839143e+00  -3.3759403e+00  -3.3788783e+00  -3.4184707e+00  -3.4163476e+00  -3.3562539e+00  -3.4106043e+00  -3.4412040e+00  -3.4334451e+00  -3.4109995e+00  -3.4217354e+00  -3.4030592e+00  -3.3910041e+00  -3.4006823e+00  -3.4034144e+00  -3.4090271e+00  -3.4293890e+00  -3.4493433e+00  -3.4688049e+00  -3.4606625e+00  -3.4551820e+00
-2.2672024e+00  -2.2891633e+00  -2.3287750e+00  -2.3539267e+00  -2.3860502e+00  -2.4028331e+00  -2.3970128e+00  -2.4061000e+00  -2.4092959e+00  -2.3890180e+00  -2.4350413e+00  -2.4891946e+00  -2.4955083e+00  -2.4798885e+00  -2.5370369e+00  -2.5707861e+00  -2.5841865e+00  -2.6005253e+00  -2.6116937e+00  -2.6036400e+00  -2.6308432e+00  -2.6530575e+00  -2.6558915e+00  -2.6753698e+00  -2.6591119e+00  -2.6513998e+00  -2.6602596e+00  -2.6921780e+00  -2.7169738e+00  -2.7301836e+00  -2.7606593e+00  -2.7838628e+00  -2.7734283e+00  -2.8271468e+00  -2.8418223e+00  -2.8314802e+00  -2.8460230e+00  -2.8498572e+00  -2.8557919e+00  -2.8791755e+00  -2.8615842e+00  -2.8589678e+00  -2.9016781e+00  -2.8890114e+00  -2.8857174e+00  -2.8796050e+00  -2.9084227e+00  -2.8968488e+00  -2.8939844e+00  -2.8742118e+00  -2.8532549e+00  -2.9053941e+00  -2.9676410e+00  -2.9837903e+00  -3.0077727e+00  -3.0297627e+00  -3.0217276e+00  -2.9838981e+00  -2.9947539e+00  -3.0301669e+00  -3.0457864e+00  -3.0422689e+00  -3.0388225e+00  -3.0180436e+00  -3.0128683e+00  -3.0907113e+00  -3.0973775e+00  -3.1142601e+00  -3.0956621e+00  -3.0912688e+00  -3.0959423e+00  -3.1362991e+00  -3.1660633e+00  -3.1728450e+00  -3.1658043e+00  -3.1284247e+00  -3.1234580e+00  -3.1667562e+00  -3.1957502e+00  -3.1827786e+00  -3.2952516e+00  -3.2283010e+00  -3.1919439e+00  -3.1931024e+00  -3.1804890e+00  -3.1859254e+00  -3.2185118e+00  -3.2376644e+00  -3.2468672e+00  -3.2742117e+00  -3.2275444e+00  -3.2224747e+00  -3.2842958e+00  -3.2413740e+00  -3.2385352e+00  -3.2940002e+00  -3.2819692e+00  -3.2877310e+00  -3.2951118e+00  -3.3068440e+00  -3.3069524e+00  -3.3145150e+00  -3.2831009e+00  -3.2980815e+00  -3.1945183e+00  -3.2140172e+00  -3.2143653e+00  -3.2692706e+00  -3.3017665e+00  -3.3147811e+00  -3.3486372e+00  -3.3329931e+00  -3.3417636e+00  -3.3526503e+00  -3.3214019e+00  -3.3813274e+00  -3.3910310e+00  -3.3401054e+00  -3.3196751e+00  -3.3277277e+00  -3.3245178e+00  -3.3255078e+00  -3.3258470e+00  -3.3507603e+00  -3.3571798e+00  -3.3388240e+00  -3.3477316e+00  -3.3376886e+00  -3.3599334e+00  -3.3333804e+00  -3.3187440e+00  -3.3341323e+00  -3.3270036e+00  -3.3523387e+00  -3.3639154e+00  -3.3232673e+00  -3.3604832e+00  -3.3197714e+00  -3.3071615e+00  -3.3386400e+00  -3.3051025e+00  -3.3551377e+00  -3.3718729e+00  -3.3529598e+00  -3.3355490e+00  -3.3847398e+00  -3.3804594e+00  -3.3605994e+00  -3.4189557e+00  -3.4152156e+00  -3.3932002e+00  -3.3762730e+00  -3.3738108e+00  -3.3827484e+00  -3.3733192e+00  -3.3775895e+00  -3.3850011e+00  -3.3904242e+00  -3.3887491e+00  -3.3990305e+00  -3.4165385e+00  -3.3956056e+00  -3.3952497e+00  -3.4116715e+00  -3.4171972e+00  -3.3942439e+00  -3.3739959e+00  -3.3948584e+00  -3.3961362e+00  -3.3909276e+00  -3.4082774e+00  -3.3847097e+00  -3.4450138e+00  -3.4614458e+00  -3.4416921e+00  -3.4084234e+00  -3.4034199e+00  -3.4408761e+00  -3.4668909e+00  -3.4580172e+00  -3.4417861e+00  -3.4531844e+00  -3.5071504e+00  -3.4685922e+00  -3.4572374e+00  -3.4539352e+00
-2.3260825e+00  -2.3272360e+00  -2.3474069e+00  -2.3416810e+00  -2.3713800e+00  -2.4076644e+00  -2.3976761e+00  -2.3728220e+00  -2.3625025e+00  -2.3916745e+00  -2.4482702e+00  -2.5088760e+00  -2.4552988e+00  -2.4926462e+00  -2.5507379e+00  -2.5630875e+00  -2.5910529e+00  -2.5713573e+00  -2.5521305e+00  -2.5617625e+00  -2.6116827e+00  -2.6160324e+00  -2.5736830e+00  -2.5337790e+00  -2.6836020e+00  -2.6579948e+00  -2.6197625e+00  -2.6593953e+00  -2.6903062e+00  -2.7402243e+00  -2.7991231e+00  -2.8060584e+00  -2.7877661e+00  -2.7928189e+00  -2.8180899e+00  -2.8302380e+00  -2.8243353e+00  -2.7932873e+00  -2.8308200e+00  -2.8895714e+00  -2.8806850e+00  -2.8095526e+00  -2.8208459e+00  -2.8694805e+00  -2.8765414e+00  -2.8525643e+00  -2.8666859e+00  -2.9112608e+00  -2.9076974e+00  -2.8991591e+00  -2.9253832e+00  -2.9484733e+00  -2.9748437e+00  -2.9972132e+00  -3.0028315e+00  -3.0038259e+00  -3.0232360e+00  -3.0243945e+00  -3.0053939e+00  -2.9800167e+00  -2.9684982e+00  -3.0373644e+00  -3.0735992e+00  -3.0506278e+00  -3.0341005e+00  -3.0934733e+00  -3.1369384e+00  -3.1240814e+00  -3.1427932e+00  -3.1483430e+00  -3.1237644e+00  -3.1356175e+00  -3.1485685e+00  -3.1633054e+00  -3.2118584e+00  -3.2240017e+00  -3.1994152e+00  -3.1937664e+00  -3.1905335e+00  -3.1718581e+00  -3.1989259e+00  -3.2063672e+00  -3.2060126e+00  -3.2016866e+00  -3.2072090e+00  -3.2214810e+00  -3.2358748e+00  -3.2628846e+00  -3.2530413e+00  -3.2399365e+00  -3.2659797e+00  -3.2645040e+00  -3.2254581e+00  -3.2601612e+00  -3.2680845e+00  -3.3100013e+00  -3.3158244e+00  -3.2958677e+00  -3.3195825e+00  -3.3225158e+00  -3.2932235e+00  -3.2864901e+00  -3.3089281e+00  -3.2836181e+00  -3.2737499e+00  -3.2709524e+00  -3.3152579e+00  -3.3451673e+00  -3.3330698e+00  -3.3238696e+00  -3.3339723e+00  -3.3474876e+00  -3.3784807e+00  -3.3986576e+00  -3.4432173e+00  -3.4367028e+00  -3.4151459e+00  -3.3299304e+00  -3.3539025e+00  -3.3710124e+00  -3.3648553e+00  -3.3497425e+00  -3.3522490e+00  -3.3692433e+00  -3.3885012e+00  -3.3983699e+00  -3.3689411e+00  -3.4167503e+00  -3.3844233e+00  -3.3467683e+00  -3.3971276e+00  -3.3960797e+00  -3.3698431e+00  -3.3809207e+00  -3.3878062e+00  -3.4204546e+00  -3.4500083e+00  -3.3934155e+00  -3.3513761e+00  -3.3256670e+00  -3.3338846e+00  -3.3620754e+00  -3.4124711e+00  -3.4008989e+00  -3.3815622e+00  -3.3877242e+00  -3.3683983e+00  -3.3859049e+00  -3.4542990e+00  -3.4263469e+00  -3.4339854e+00  -3.3873680e+00  -3.3846851e+00  -3.4179323e+00  -3.4406278e+00  -3.4199047e+00  -3.4258567e+00  -3.4240964e+00  -3.4194492e+00  -3.4015839e+00  -3.4093256e+00  -3.4200958e+00  -3.4089455e+00  -3.3872648e+00  -3.3967323e+00  -3.4301871e+00  -3.4493358e+00  -3.4351950e+00  -3.4248883e+00  -3.4109568e+00  -3.4270981e+00  -3.4364708e+00  -3.4332778e+00  -3.4242217e+00  -3.4180223e+00  -3.4464693e+00  -3.4427247e+00  -3.4240722e+00  -3.4663113e+00  -3.4556124e+00  -3.4262100e+00  -3.4260468e+00  -3.4427189e+00  -3.4501325e+00  -3.4761945e+00  -3.5173899e+00
-2.3237365e+00  -2.3932527e+00  -2.4017713e+00  -2.3635480e+00  -2.3708918e+00  -2.3722148e+00  -2.3812453e+00  -2.4072970e+00  -2.4080042e+00  -2.4083315e+00  -2.4085095e+00  -2.4655030e+00  -2.5004872e+00  -2.4757810e+00  -2.4979607e+00  -2.5601030e+00  -2.5773741e+00  -2.5654524e+00  -2.5386490e+00  -2.5770904e+00  -2.6035478e+00  -2.5947653e+00  -2.5805135e+00  -2.6128228e+00  -2.6508360e+00  -2.7110870e+00  -2.6616362e+00  -2.6881241e+00  -2.7191101e+00  -2.7101539e+00  -2.7420092e+00  -2.8036032e+00  -2.7906334e+00  -2.7741451e+00  -2.7933230e+00  -2.8600854e+00  -2.8261264e+00  -2.7990879e+00  -2.8270190e+00  -2.8441134e+00  -2.8242894e+00  -2.8096569e+00  -2.8366979e+00  -2.8935618e+00  -2.8947322e+00  -2.8932432e+00  -2.9208636e+00  -2.9138099e+00  -2.9094222e+00  -2.9345505e+00  -2.9642378e+00  -2.9342246e+00  -2.9560864e+00  -2.9567009e+00  -2.9428877e+00  -2.9700965e+00  -2.9760244e+00  -2.9702646e+00  -2.9748289e+00  -3.0034387e+00  -3.0132319e+00  -3.0395927e+00  -3.1169532e+00  -3.1543204e+00  -3.1193998e+00  -3.1291824e+00  -3.1017683e+00  -3.0971525e+00  -3.1331180e+00  -3.1687285e+00  -3.1418301e+00  -3.1535449e+00  -3.1905516e+00  -3.1818579e+00  -3.2119339e+00  -3.2481014e+00  -3.2251354e+00  -3.2381527e+00  -3.2724853e+00  -3.2251410e+00  -3.2143713e+00  -3.2423542e+00  -3.2528187e+00  -3.2427917e+00  -3.2717727e+00  -3.2978344e+00  -3.2653311e+00  -3.2488437e+00  -3.2542993e+00  -3.2541486e+00  -3.2514332e+00  -3.2657028e+00  -3.2820651e+00  -3.2902105e+00  -3.3239596e+00  -3.3075522e+00  -3.3353364e+00  -3.3556954e+00  -3.3574183e+00  -3.3266166e+00  -3.3197138e+00  -3.3304743e+00  -3.3267582e+00  -3.3396726e+00  -3.3973353e+00  -3.3757908e+00  -3.3718524e+00  -3.4070361e+00  -3.3626834e+00  -3.3876690e+00  -3.3925452e+00  -3.3702964e+00  -3.3738157e+00  -3.4045488e+00  -3.4366401e+00  -3.4425779e+00  -3.4402704e+00  -3.3950723e+00  -3.4362176e+00  -3.3728064e+00  -3.3996805e+00  -3.4172993e+00  -3.4348110e+00  -3.4041119e+00  -3.4060482e+00  -3.4248788e+00  -3.4367553e+00  -3.4619131e+00  -3.4058947e+00  -3.4044534e+00  -3.4217853e+00  -3.3949019e+00  -3.3716910e+00  -3.3971832e+00  -3.3947207e+00  -3.4090611e+00  -3.4344321e+00  -3.4044876e+00  -3.3857603e+00  -3.4009294e+00  -3.4045573e+00  -3.4051704e+00  -3.4758221e+00  -3.4434989e+00  -3.3820340e+00  -3.4120814e+00  -3.4070185e+00  -3.3985526e+00  -3.4238019e+00  -3.4164666e+00  -3.4157209e+00  -3.4361260e+00  -3.4206503e+00  -3.4336630e+00  -3.4231568e+00  -3.4168100e+00  -3.4344504e+00  -3.4531223e+00  -3.4365780e+00  -3.4409679e+00  -3.4355572e+00  -3.4330038e+00  -3.4363368e+00  -3.4199976e+00  -3.4173764e+00  -3.4133275e+00  -3.4042200e+00  -3.4387213e+00  -3.3997778e+00  -3.3923504e+00  -3.4296695e+00  -3.4243571e+00  -3.4205617e+00  -3.4580412e+00  -3.4525352e+00  -3.4396136e+00  -3.4650590e+00  -3.4478184e+00  -3.4426918e+00  -3.4210028e+00  -3.4797988e+00  -3.4840212e+00  -3.4628866e+00  -3.4482828e+00  -3.4493736e+00  -3.4742249e+00
-2.3173547e+00  -2.3322801e+00  -2.3448280e+00  -2.3645664e+00  -2.3365021e+00  -2.3807517e+00  -2.4382552e+00  -2.3919297e+00  -2.3977204e+00  -2.4123033e+00  -2.4034207e+00  -2.4554232e+00  -2.4805659e+00  -2.4939548e+00  -2.4747324e+00  -2.4729151e+00  -2.5503493e+00  -2.5214646e+00  -2.5542759e+00  -2.5831643e+00  -2.6007311e+00  -2.6078391e+00  -2.6213320e+00  -2.6219624e+00  -2.6530009e+00  -2.6936583e+00  -2.6326843e+00  -2.7239533e+00  -2.6967195e+00  -2.7248476e+00  -2.7902166e+00  -2.7922296e+00  -2.7569062e+00  -2.7318739e+00  -2.7670086e+00  -2.8347400e+00  -2.8190135e+00  -2.7948916e+00  -2.8038258e+00  -2.8095432e+00  -2.8291401e+00  -2.7927639e+00  -2.8098635e+00  -2.8801080e+00  -2.9339382e+00  -2.9258495e+00  -2.9114276e+00  -2.9191071e+00  -2.9437133e+00  -2.9713920e+00  -2.9372818e+00  -2.9683455e+00  -2.9751834e+00  -3.0067335e+00  -3.0039135e+00  -3.0163908e+00  -3.0043721e+00  -2.9880353e+00  -2.9837083e+00  -3.0169378e+00  -3.0390493e+00  -3.0443755e+00  -3.0941338e+00  -3.1513309e+00  -3.1574056e+00  -3.1348412e+00  -3.1064187e+00  -3.1190144e+00  -3.1256959e+00  -3.1389341e+00  -3.1378039e+00  -3.1531593e+00  -3.2089356e+00  -3.1688812e+00  -3.1942087e+00  -3.2139042e+00  -3.2057958e+00  -3.2447290e+00  -3.2517018e+00  -3.2561818e+00  -3.2637779e+00  -3.2793993e+00  -3.2978631e+00  -3.3064669e+00  -3.2969109e+00  -3.3290392e+00  -3.3291249e+00  -3.3259293e+00  -3.3165947e+00  -3.2993175e+00  -3.3093305e+00  -3.3113159e+00  -3.3279718e+00  -3.3430679e+00  -3.3572742e+00  -3.3620166e+00  -3.3690220e+00  -3.3458541e+00  -3.3875922e+00  -3.3646426e+00  -3.3724964e+00  -3.3765005e+00  -3.3866298e+00  -3.3948980e+00  -3.4238536e+00  -3.4384206e+00  -3.4227786e+00  -3.4434019e+00  -3.4012488e+00  -3.4348311e+00  -3.4178912e+00  -3.4157925e+00  -3.4507445e+00  -3.4684771e+00  -3.4499654e+00  -3.4449961e+00  -3.4511060e+00  -3.4346536e+00  -3.4187383e+00  -3.4449437e+00  -3.3987280e+00  -3.4514049e+00  -3.4583458e+00  -3.4680553e+00  -3.4436403e+00  -3.4396300e+00  -3.4539428e+00  -3.4610075e+00  -3.5010816e+00  -3.4596029e+00  -3.4379394e+00  -3.4318641e+00  -3.4770470e+00  -3.4984545e+00  -3.4604675e+00  -3.4566222e+00  -3.4497006e+00  -3.4536636e+00  -3.4605229e+00  -3.4543382e+00  -3.4458872e+00  -3.4784406e+00  -3.4789137e+00  -3.4323914e+00  -3.4436735e+00  -3.4656240e+00  -3.4542906e+00  -3.4668030e+00  -3.4726573e+00  -3.4790297e+00  -3.4725171e+00  -3.4560442e+00  -3.4622000e+00  -3.4701199e+00  -3.4707803e+00  -3.4542905e+00  -3.4823688e+00  -3.4709593e+00  -3.4729892e+00  -3.4643214e+00  -3.4511948e+00  -3.4642529e+00  -3.4774613e+00  -3.4661902e+00  -3.4648728e+00  -3.4386449e+00  -3.4322898e+00  -3.4642443e+00  -3.4283570e+00  -3.4362208e+00  -3.4806162e+00  -3.4786427e+00  -3.5122142e+00  -3.4929640e+00  -3.4548242e+00  -3.4620220e+00  -3.4607737e+00  -3.4962305e+00  -3.4965688e+00  -3.4617284e+00  -3.4972810e+00  -3.4902984e+00  -3.5065521e+00  -3.4963105e+00  -3.4848993e+00  -3.4946671e+00
-2.2579845e+00  -2.3006417e+00  -2.3333396e+00  -2.3247442e+00  -2.3489256e+00  -2.3735494e+00  -2.4323109e+00  -2.3986245e+00  -2.3475159e+00  -2.3290589e+00  -2.3670734e+00  -2.4370189e+00  -2.4568252e+00  -2.4279931e+00  -2.4373242e+00  -2.4984785e+00  -2.5188865e+00  -2.5118185e+00  -2.4871820e+00  -2.5008253e+00  -2.5916835e+00  -2.6097881e+00  -2.6509497e+00  -2.6297519e+00  -2.6437750e+00  -2.6400033e+00  -2.6677538e+00  -2.7125039e+00  -2.7509417e+00  -2.7259002e+00  -2.7422321e+00  -2.7549018e+00  -2.8034618e+00  -2.7844264e+00  -2.7754048e+00  -2.8103455e+00  -2.8193910e+00  -2.8128801e+00  -2.8091968e+00  -2.8327833e+00  -2.8696937e+00  -2.8652145e+00  -2.8479247e+00  -2.8958389e+00  -2.9117508e+00  -2.9116084e+00  -2.9205185e+00  -2.9386820e+00  -2.9578649e+00  -2.9421949e+00  -2.9306841e+00  -2.9429563e+00  -2.9494470e+00  -2.9733355e+00  -3.0378704e+00  -3.0504049e+00  -3.0356758e+00  -3.0480772e+00  -3.0371455e+00  -3.0434489e+00  -3.0597272e+00  -3.1023287e+00  -3.1043317e+00  -3.1466043e+00  -3.1222849e+00  -3.1314638e+00  -3.1772596e+00  -3.1350412e+00  -3.1326960e+00  -3.1425093e+00  -3.1548435e+00  -3.1658393e+00  -3.1993370e+00  -3.2281267e+00  -3.2380335e+00  -3.2500417e+00  -3.2399839e+00  -3.2241071e+00  -3.2575380e+00  -3.2719231e+00  -3.2702726e+00  -3.2792738e+00  -3.3204169e+00  -3.3348038e+00  -3.3293658e+00  -3.3339195e+00  -3.3382270e+00  -3.3212652e+00  -3.3445513e+00  -3.3516759e+00  -3.3353120e+00  -3.3781140e+00  -3.3722707e+00  -3.3659793e+00  -3.3689242e+00  -3.3804663e+00  -3.3799082e+00  -3.3935348e+00  -3.4186741e+00  -3.3827207e+00  -3.3905928e+00  -3.4418396e+00  -3.4320332e+00  -3.4409057e+00  -3.4557083e+00  -3.4531772e+00  -3.4542022e+00  -3.4664029e+00  -3.4685148e+00  -3.4906119e+00  -3.4926198e+00  -3.5082080e+00  -3.4991793e+00  -3.4900811e+00  -3.4777281e+00  -3.4827066e+00  -3.4607503e+00  -3.4557356e+00  -3.4900095e+00  -3.5215016e+00  -3.5273338e+00  -3.4992097e+00  -3.4799829e+00  -3.4755923e+00  -3.4893722e+00  -3.5073102e+00  -3.4952251e+00  -3.5062403e+00  -3.4998945e+00  -3.4832136e+00  -3.4912833e+00  -3.5028395e+00  -3.4903063e+00  -3.4833166e+00  -3.5208083e+00  -3.5015914e+00  -3.4588825e+00  -3.4793069e+00  -3.4681608e+00  -3.4916778e+00  -3.5258189e+00  -3.4883654e+00  -3.4666464e+00  -3.4643996e+00  -3.4837045e+00  -3.5188552e+00  -3.5102695e+00  -3.4516762e+00  -3.4905167e+00  -3.5048454e+00  -3.4898714e+00  -3.4869000e+00  -3.5014199e+00  -3.5041508e+00  -3.5044197e+00  -3.4761377e+00  -3.4905944e+00  -3.4877335e+00  -3.4992783e+00  -3.5125806e+00  -3.4963570e+00  -3.4815034e+00  -3.4776190e+00  -3.4760333e+00  -3.4837038e+00  -3.4969470e+00  -3.4800506e+00  -3.4588203e+00  -3.4761230e+00  -3.4423089e+00  -3.4695107e+00  -3.4973013e+00  -3.4783430e+00  -3.4952692e+00  -3.5000396e+00  -3.5075353e+00  -3.5278001e+00  -3.5496017e+00  -3.5257498e+00  -3.5245141e+00  -3.5212399e+00  -3.5322700e+00  -3.5468794e+00  -3.5447694e+00  -3.5296851e+00  -3.5086402e+00
-2.2083440e+00  -2.2772435e+00  -2.3483503e+00  -2.3410466e+00  -2.3115756e+00  -2.3512986e+00  -2.3791037e+00  -2.3825690e+00  -2.4039876e+00  -2.3730024e+00  -2.3478918e+00  -2.4246897e+00  -2.4633853e+00  -2.4475910e+00  -2.4678569e+00  -2.4825870e+00  -2.4686403e+00  -2.5188592e+00  -2.5974629e+00  -2.5624660e+00  -2.5920375e+00  -2.5956791e+00  -2.5783399e+00  -2.5954134e+00  -2.6244932e+00  -2.6379518e+00  -2.6631363e+00  -2.6809033e+00  -2.7324462e+00  -2.7602589e+00  -2.7199738e+00  -2.7569107e+00  -2.7846921e+00  -2.7953049e+00  -2.7645685e+00  -2.7832555e+00  -2.8159959e+00  -2.8357208e+00  -2.8413689e+00  -2.8475634e+00  -2.8592743e+00  -2.8617450e+00  -2.8681670e+00  -2.9158368e+00  -2.9256013e+00  -2.9140374e+00  -2.9265270e+00  -2.9315827e+00  -2.9578070e+00  -2.9546440e+00  -2.9574035e+00  -2.9659064e+00  -2.9669443e+00  -2.9859738e+00  -3.0181017e+00  -3.0392912e+00  -3.0938543e+00  -3.0574422e+00  -2.9954118e+00  -3.0055869e+00  -3.0771610e+00  -3.1312548e+00  -3.1665720e+00  -3.1542886e+00  -3.0941251e+00  -3.0640508e+00  -3.1174767e+00  -3.1512218e+00  -3.1508164e+00  -3.1449782e+00  -3.1479859e+00  -3.1618386e+00  -3.2260670e+00  -3.2598070e+00  -3.2421245e+00  -3.2313146e+00  -3.2519660e+00  -3.2526581e+00  -3.2484626e+00  -3.3149638e+00  -3.2916649e+00  -3.2598780e+00  -3.3347576e+00  -3.3581170e+00  -3.3675200e+00  -3.3734083e+00  -3.3686824e+00  -3.3596923e+00  -3.3477911e+00  -3.3640084e+00  -3.3675508e+00  -3.3773933e+00  -3.3860545e+00  -3.3824717e+00  -3.4052385e+00  -3.4187065e+00  -3.4141471e+00  -3.4341179e+00  -3.4193552e+00  -3.3969000e+00  -3.4456009e+00  -3.4683957e+00  -3.4558763e+00  -3.5063600e+00  -3.4827755e+00  -3.4948318e+00  -3.5113434e+00  -3.5036999e+00  -3.4903054e+00  -3.5261065e+00  -3.5233196e+00  -3.5139328e+00  -3.5333151e+00  -3.5370342e+00  -3.5100310e+00  -3.5104125e+00  -3.5278873e+00  -3.5344044e+00  -3.5118620e+00  -3.5321588e+00  -3.5616206e+00  -3.5865230e+00  -3.5639515e+00  -3.5564185e+00  -3.5470515e+00  -3.5604761e+00  -3.5752299e+00  -3.5471578e+00  -3.6014584e+00  -3.5710197e+00  -3.5593350e+00  -3.5572190e+00  -3.5512677e+00  -3.5192422e+00  -3.5049905e+00  -3.5613989e+00  -3.5532450e+00  -3.5261305e+00  -3.5301609e+00  -3.5652894e+00  -3.5428835e+00  -3.5188194e+00  -3.5551100e+00  -3.5579895e+00  -3.5611174e+00  -3.5951062e+00  -3.5735888e+00  -3.5353428e+00  -3.5110761e+00  -3.5459533e+00  -3.5458059e+00  -3.5649149e+00  -3.5720318e+00  -3.5519231e+00  -3.5519269e+00  -3.5527302e+00  -3.5423932e+00  -3.5584009e+00  -3.5567890e+00  -3.5550508e+00  -3.5207181e+00  -3.5440632e+00  -3.5564147e+00  -3.5489816e+00  -3.5594298e+00  -3.5459741e+00  -3.5319862e+00  -3.5568698e+00  -3.5305657e+00  -3.5189642e+00  -3.5435226e+00  -3.5488481e+00  -3.5652899e+00  -3.5744519e+00  -3.5400564e+00  -3.5263532e+00  -3.5284706e+00  -3.5429280e+00  -3.5591042e+00  -3.5771633e+00  -3.5935220e+00  -3.5942345e+00  -3.6093654e+00  -3.6086248e+00  -3.5662501e+00  -3.5871183e+00
-2.2158221e+00  -2.2061908e+00  -2.2796760e+00  -2.3331284e+00  -2.3631161e+00  -2.3329228e+00  -2.3480889e+00  -2.3978471e+00  -2.4235442e+00  -2.4090629e+00  -2.4539581e+00  -2.4201108e+00  -2.4337279e+00  -2.4811993e+00  -2.4804581e+00  -2.4311082e+00  -2.4451749e+00  -2.4954379e+00  -2.5126774e+00  -2.5568923e+00  -2.6142855e+00  -2.5855746e+00  -2.5649360e+00  -2.6284728e+00  -2.5969503e+00  -2.6257477e+00  -2.6725985e+00  -2.6625213e+00  -2.7472875e+00  -2.7414731e+00  -2.7092900e+00  -2.7348563e+00  -2.7541664e+00  -2.7901695e+00  -2.7991619e+00  -2.7642136e+00  -2.8177439e+00  -2.8477298e+00  -2.8366840e+00  -2.8450611e+00  -2.8740585e+00  -2.8631399e+00  -2.8399173e+00  -2.8450771e+00  -2.9002670e+00  -2.9386535e+00  -3.0246723e+00  -2.9636512e+00  -2.9506075e+00  -2.9859917e+00  -2.9812851e+00  -2.9564767e+00  -2.9897819e+00  -3.0116713e+00  -3.0331805e+00  -3.0529958e+00  -3.0570720e+00  -3.0560397e+00  -3.0589130e+00  -3.0790467e+00  -3.0897133e+00  -3.1104434e+00  -3.0785374e+00  -3.1021478e+00  -3.1212921e+00  -3.1237603e+00  -3.1557974e+00  -3.1854418e+00  -3.1844348e+00  -3.1673988e+00  -3.1514384e+00  -3.1948065e+00  -3.2110632e+00  -3.2524053e+00  -3.2731810e+00  -3.2568400e+00  -3.2695576e+00  -3.3015285e+00  -3.3271271e+00  -3.3643178e+00  -3.3333794e+00  -3.3375925e+00  -3.3508157e+00  -3.3281581e+00  -3.3473234e+00  -3.3812936e+00  -3.3862961e+00  -3.3868025e+00  -3.3854239e+00  -3.3884508e+00  -3.4078113e+00  -3.4315977e+00  -3.4571957e+00  -3.4259452e+00  -3.4960559e+00  -3.4710028e+00  -3.4604581e+00  -3.4667584e+00  -3.4850373e+00  -3.4856790e+00  -3.5133225e+00  -3.5491274e+00  -3.5253457e+00  -3.5416900e+00  -3.5275953e+00  -3.5320259e+00  -3.5473441e+00  -3.5676897e+00  -3.5675683e+00  -3.5436541e+00  -3.5752553e+00  -3.6054897e+00  -3.5674670e+00  -3.5801778e+00  -3.5768255e+00  -3.5734087e+00  -3.6009519e+00  -3.6005453e+00  -3.5873555e+00  -3.5620273e+00  -3.5700953e+00  -3.6024659e+00  -3.6237050e+00  -3.6415935e+00  -3.6210004e+00  -3.6089989e+00  -3.5778661e+00  -3.6103298e+00  -3.6686729e+00  -3.6379365e+00  -3.6562377e+00  -3.6027615e+00  -3.6210403e+00  -3.6142718e+00  -3.6236862e+00  -3.6046758e+00  -3.5881057e+00  -3.6130805e+00  -3.5958418e+00  -3.6078249e+00  -3.6395250e+00  -3.5985690e+00  -3.6000102e+00  -3.5879951e+00  -3.6010519e+00  -3.6413212e+00  -3.6512583e+00  -3.6418984e+00  -3.6317698e+00  -3.6185361e+00  -3.6141592e+00  -3.6266655e+00  -3.6134974e+00  -3.5750273e+00  -3.6075661e+00  -3.6050503e+00  -3.5957185e+00  -3.6066003e+00  -3.6276714e+00  -3.6387295e+00  -3.6333461e+00  -3.6212799e+00  -3.6319665e+00  -3.5905272e+00  -3.6117429e+00  -3.6096730e+00  -3.6148689e+00  -3.6200906e+00  -3.5992452e+00  -3.5921891e+00  -3.6024482e+00  -3.5832704e+00  -3.6246524e+00  -3.5782294e+00  -3.5872634e+00  -3.5998623e+00  -3.6220257e+00  -3.5961692e+00  -3.6070819e+00  -3.6322244e+00  -3.6446054e+00  -3.6347063e+00  -3.6403786e+00  -3.6421713e+00  -3.6546800e+00  -3.6343048e+00
-2.2887846e+00  -2.2024230e+00  -2.2124193e+00  -2.2937385e+00  -2.3395121e+00  -2.3371664e+00  -2.3542316e+00  -2.3883088e+00  -2.3860779e+00  -2.3296262e+00  -2.3576429e+00  -2.4174745e+00  -2.4401470e+00  -2.4248843e+00  -2.4537495e+00  -2.4675592e+00  -2.5195568e+00  -2.4887010e+00  -2.4617895e+00  -2.5039086e+00  -2.5541222e+00  -2.5656222e+00  -2.5933850e+00  -2.5592606e+00  -2.5640359e+00  -2.6260706e+00  -2.6424410e+00  -2.6673158e+00  -2.6718456e+00  -2.6752648e+00  -2.7240162e+00  -2.7665489e+00  -2.7941511e+00  -2.8023363e+00  -2.7628947e+00  -2.7762764e+00  -2.8233720e+00  -2.8559409e+00  -2.8332803e+00  -2.8512067e+00  -2.9080348e+00  -2.8537514e+00  -2.8230306e+00  -2.8597464e+00  -2.8902780e+00  -2.8857321e+00  -2.9155596e+00  -2.9419400e+00  -2.9518673e+00  -2.9875987e+00  -2.9711754e+00  -2.9637387e+00  -2.9815033e+00  -3.0400681e+00  -3.0453327e+00  -3.0294128e+00  -3.0225253e+00  -3.0521405e+00  -3.0896933e+00  -3.1037177e+00  -3.1243912e+00  -3.1389980e+00  -3.1364525e+00  -3.1201719e+00  -3.1482796e+00  -3.1911919e+00  -3.1985678e+00  -3.1750859e+00  -3.1619331e+00  -3.1928767e+00  -3.1810363e+00  -3.2177020e+00  -3.2097156e+00  -3.2699093e+00  -3.2768374e+00  -3.2555685e+00  -3.2957061e+00  -3.2997038e+00  -3.3045974e+00  -3.3240599e+00  -3.3325484e+00  -3.3518193e+00  -3.3950445e+00  -3.4091466e+00  -3.3703727e+00  -3.3832071e+00  -3.4053799e+00  -3.4131312e+00  -3.4190293e+00  -3.4309706e+00  -3.4468992e+00  -3.4446176e+00  -3.4647627e+00  -3.4757941e+00  -3.5008268e+00  -3.4948870e+00  -3.4965426e+00  -3.5395089e+00  -3.5406570e+00  -3.5451695e+00  -3.5801603e+00  -3.5909880e+00  -3.5647087e+00  -3.5582628e+00  -3.5916684e+00  -3.5988970e+00  -3.5856797e+00  -3.6282525e+00  -3.6051748e+00  -3.5949316e+00  -3.6136630e+00  -3.6487526e+00  -3.6281121e+00  -3.6216586e+00  -3.6300197e+00  -3.6203372e+00  -3.6131705e+00  -3.6250601e+00  -3.6207735e+00  -3.6245071e+00  -3.6671744e+00  -3.6297916e+00  -3.6534922e+00  -3.6657827e+00  -3.6704339e+00  -3.6659684e+00  -3.6841675e+00  -3.6751639e+00  -3.6444022e+00  -3.7292264e+00  -3.6763036e+00  -3.6670445e+00  -3.6719374e+00  -3.6960597e+00  -3.7220265e+00  -3.6827960e+00  -3.6712087e+00  -3.6912362e+00  -3.6530788e+00  -3.6788806e+00  -3.6753741e+00  -3.6903873e+00  -3.7019242e+00  -3.7111705e+00  -3.7195098e+00  -3.6970732e+00  -3.7128615e+00  -3.6948560e+00  -3.6812739e+00  -3.6887319e+00  -3.6717772e+00  -3.6687667e+00  -3.6814536e+00  -3.6624240e+00  -3.6582290e+00  -3.6901481e+00  -3.6621372e+00  -3.6629566e+00  -3.6867217e+00  -3.6855930e+00  -3.6701958e+00  -3.6907245e+00  -3.7014026e+00  -3.6958806e+00  -3.7189483e+00  -3.6805181e+00  -3.6362483e+00  -3.6540198e+00  -3.6538202e+00  -3.6488034e+00  -3.6616153e+00  -3.6527445e+00  -3.6739005e+00  -3.6765664e+00  -3.6637306e+00  -3.6769988e+00  -3.6347930e+00  -3.6895367e+00  -3.6187011e+00  -3.6216990e+00  -3.6680581e+00  -3.6941152e+00  -3.7037620e+00  -3.6815582e+00  -3.6822516e+00  -3.6914178e+00
-2.2200584e+00  -2.2926025e+00  -2.3211029e+00  -2.2922287e+00  -2.3277817e+00  -2.2587273e+00  -2.2708684e+00  -2.3095577e+00  -2.3149414e+00  -2.3218368e+00  -2.3542522e+00  -2.3932949e+00  -2.4075913e+00  -2.3726001e+00  -2.3455309e+00  -2.4346708e+00  -2.4411207e+00  -2.4426030e+00  -2.5296945e+00  -2.5232670e+00  -2.5063351e+00  -2.5125028e+00  -2.5442551e+00  -2.5889307e+00  -2.6404465e+00  -2.6341216e+00  -2.6604011e+00  -2.6387390e+00  -2.6381570e+00  -2.7032279e+00  -2.7296056e+00  -2.7432612e+00  -2.7667144e+00  -2.7615027e+00  -2.7614707e+00  -2.7885702e+00  -2.8075575e+00  -2.7966437e+00  -2.8400894e+00  -2.8542805e+00  -2.8365733e+00  -2.8092965e+00  -2.8330388e+00  -2.8486637e+00  -2.8813191e+00  -2.9013957e+00  -2.9311551e+00  -2.9391485e+00  -2.9578771e+00  -2.9897273e+00  -2.9812775e+00  -2.9799491e+00  -2.9954543e+00  -3.0389866e+00  -3.0446724e+00  -3.0441807e+00  -3.0241882e+00  -3.0512665e+00  -3.1114814e+00  -3.1114957e+00  -3.1078251e+00  -3.1625206e+00  -3.1566464e+00  -3.1880251e+00  -3.1962754e+00  -3.1895485e+00  -3.2097112e+00  -3.2259696e+00  -3.2210415e+00  -3.2204694e+00  -3.2067076e+00  -3.2415448e+00  -3.2787815e+00  -3.2783808e+00  -3.2940869e+00  -3.2752433e+00  -3.2947629e+00  -3.3539597e+00  -3.3458462e+00  -3.3391314e+00  -3.3696518e+00  -3.3649671e+00  -3.3664701e+00  -3.3574855e+00  -3.3940333e+00  -3.4037707e+00  -3.4311789e+00  -3.4098539e+00  -3.4049936e+00  -3.4797805e+00  -3.4701794e+00  -3.4616669e+00  -3.4906055e+00  -3.4870822e+00  -3.4933158e+00  -3.5444486e+00  -3.5687032e+00  -3.5625945e+00  -3.6037511e+00  -3.5597535e+00  -3.5339994e+00  -3.5720329e+00  -3.5906045e+00  -3.5875520e+00  -3.6145192e+00  -3.6121669e+00  -3.5670168e+00  -3.5941640e+00  -3.6481277e+00  -3.5880330e+00  -3.6384127e+00  -3.6437212e+00  -3.6341225e+00  -3.6567278e+00  -3.6591998e+00  -3.6437098e+00  -3.6634936e+00  -3.6582201e+00  -3.6471405e+00  -3.6692778e+00  -3.6477447e+00  -3.6613760e+00  -3.6755036e+00  -3.6652971e+00  -3.6894336e+00  -3.7134531e+00  -3.6978266e+00  -3.6503125e+00  -3.6564015e+00  -3.6723104e+00  -3.6570713e+00  -3.6902855e+00  -3.7227759e+00  -3.7057373e+00  -3.7329983e+00  -3.7329803e+00  -3.7348408e+00  -3.7226839e+00  -3.6920692e+00  -3.7154854e+00  -3.7241610e+00  -3.6940612e+00  -3.7531568e+00  -3.7131174e+00  -3.6766542e+00  -3.7546817e+00  -3.7233645e+00  -3.7347111e+00  -3.7369982e+00  -3.7104749e+00  -3.7026525e+00  -3.7237851e+00  -3.7103937e+00  -3.6994277e+00  -3.6949209e+00  -3.7158668e+00  -3.7044628e+00  -3.6884743e+00  -3.7052374e+00  -3.6871069e+00  -3.7124473e+00  -3.7152680e+00  -3.7011241e+00  -3.6831623e+00  -3.6956375e+00  -3.6805034e+00  -3.7030868e+00  -3.6637195e+00  -3.6825880e+00  -3.6718937e+00  -3.6828915e+00  -3.7190874e+00  -3.7223349e+00  -3.6885263e+00  -3.6843062e+00  -3.6674326e+00  -3.7059058e+00  -3.6866716e+00  -3.6781067e+00  -3.7250338e+00  -3.6781778e+00  -3.6763928e+00  -3.7399404e+00  -3.7163827e+00  -3.7151985e+00  -3.7283802e+00
-2.1523427e+00  -2.2062747e+00  -2.2207994e+00  -2.2375204e+00  -2.2652393e+00  -2.2454341e+00  -2.2396242e+00  -2.2544652e+00  -2.3021752e+00  -2.3156056e+00  -2.3477556e+00  -2.3366616e+00  -2.3485340e+00  -2.3643794e+00  -2.3668147e+00  -2.4009182e+00  -2.4212861e+00  -2.4302483e+00  -2.4316609e+00  -2.4187827e+00  -2.4586397e+00  -2.4650825e+00  -2.5076339e+00  -2.5431776e+00  -2.5814482e+00  -2.6155010e+00  -2.6557476e+00  -2.6285635e+00  -2.6315744e+00  -2.6723625e+00  -2.6732952e+00  -2.7052100e+00  -2.7688411e+00  -2.7523067e+00  -2.7336280e+00  -2.7412216e+00  -2.7765406e+00  -2.8212613e+00  -2.8528056e+00  -2.8348499e+00  -2.7949056e+00  -2.8527507e+00  -2.8453101e+00  -2.8323824e+00  -2.8689768e+00  -2.9274130e+00  -2.9338281e+00  -2.9439884e+00  -2.9571170e+00  -2.9367594e+00  -2.9497890e+00  -2.9858034e+00  -2.9934356e+00  -2.9730481e+00  -3.0259003e+00  -3.0478640e+00  -3.0815390e+00  -3.0582192e+00  -3.0759201e+00  -3.0867558e+00  -3.1115590e+00  -3.1494399e+00  -3.1719995e+00  -3.1833022e+00  -3.1764383e+00  -3.1725262e+00  -3.1716279e+00  -3.2507489e+00  -3.2340187e+00  -3.2343850e+00  -3.2425127e+00  -3.2344830e+00  -3.2496371e+00  -3.3125431e+00  -3.3069363e+00  -3.3146952e+00  -3.3502368e+00  -3.3504692e+00  -3.3468895e+00  -3.3274702e+00  -3.3659606e+00  -3.3925283e+00  -3.3811300e+00  -3.3854773e+00  -3.4156311e+00  -3.4334748e+00  -3.4371217e+00  -3.4423556e+00  -3.4466758e+00  -3.4680972e+00  -3.4957921e+00  -3.5020724e+00  -3.4968377e+00  -3.4976452e+00  -3.5128685e+00  -3.5446421e+00  -3.5638632e+00  -3.5682270e+00  -3.5988836e+00  -3.6173324e+00  -3.5773998e+00  -3.5971279e+00  -3.5932125e+00  -3.6072667e+00  -3.6103921e+00  -3.6019648e+00  -3.6016028e+00  -3.6295332e+00  -3.6839448e+00  -3.6389068e+00  -3.6565318e+00  -3.6748229e+00  -3.6537328e+00  -3.6700046e+00  -3.6667332e+00  -3.6492822e+00  -3.6734372e+00  -3.6610836e+00  -3.6781209e+00  -3.7114676e+00  -3.7185642e+00  -3.7293349e+00  -3.7290509e+00  -3.7016683e+00  -3.6909804e+00  -3.7519568e+00  -3.7549153e+00  -3.7259745e+00  -3.7150335e+00  -3.7178561e+00  -3.7475838e+00  -3.7599996e+00  -3.7557780e+00  -3.7387210e+00  -3.7571189e+00  -3.6962614e+00  -3.7674786e+00  -3.7585105e+00  -3.7206749e+00  -3.7485912e+00  -3.7668060e+00  -3.7950207e+00  -3.7632454e+00  -3.7245104e+00  -3.7621286e+00  -3.7998024e+00  -3.7194157e+00  -3.7241412e+00  -3.7648793e+00  -3.7433308e+00  -3.7327426e+00  -3.7353586e+00  -3.7222777e+00  -3.7312015e+00  -3.7329613e+00  -3.6983897e+00  -3.7165977e+00  -3.7221385e+00  -3.7449925e+00  -3.7338375e+00  -3.7139337e+00  -3.7170019e+00  -3.7095145e+00  -3.7152086e+00  -3.7330267e+00  -3.7334214e+00  -3.6983754e+00  -3.6998630e+00  -3.6901773e+00  -3.7490637e+00  -3.7424779e+00  -3.7315418e+00  -3.7341134e+00  -3.7034337e+00  -3.7088273e+00  -3.6976127e+00  -3.6972772e+00  -3.7351077e+00  -3.7018247e+00  -3.7228855e+00  -3.6955884e+00  -3.7352424e+00  -3.7469801e+00  -3.7445018e+00  -3.7808052e+00  -3.7666413e+00
-2.1482223e+00  -2.1707339e+00  -2.1953903e+00  -2.2087317e+00  -2.2178167e+00  -2.2278214e+00  -2.2640516e+00  -2.2758828e+00  -2.2847103e+00  -2.3267293e+00  -2.2965806e+00  -2.2953798e+00  -2.4086217e+00  -2.4143808e+00  -2.4161473e+00  -2.4344142e+00  -2.4272556e+00  -2.3966832e+00  -2.4229194e+00  -2.4253030e+00  -2.4345458e+00  -2.4628424e+00  -2.4875534e+00  -2.5200014e+00  -2.5558896e+00  -2.5713665e+00  -2.5836709e+00  -2.6010328e+00  -2.6174417e+00  -2.6523318e+00  -2.6330915e+00  -2.6716802e+00  -2.7167621e+00  -2.7310647e+00  -2.7022403e+00  -2.7497686e+00  -2.7653617e+00  -2.8013602e+00  -2.7895904e+00  -2.7798046e+00  -2.7937118e+00  -2.8317546e+00  -2.8656383e+00  -2.8866647e+00  -2.8879783e+00  -2.9363914e+00  -2.9629918e+00  -2.9557835e+00  -2.9499330e+00  -2.9645282e+00  -2.9865800e+00  -2.9796363e+00  -2.9827371e+00  -3.0168149e+00  -3.0142402e+00  -3.0366397e+00  -3.0718511e+00  -3.0776019e+00  -3.1062468e+00  -3.1066098e+00  -3.1134945e+00  -3.1427933e+00  -3.1612277e+00  -3.1630079e+00  -3.1772206e+00  -3.2153269e+00  -3.1965490e+00  -3.1829618e+00  -3.2209529e+00  -3.2427347e+00  -3.2576978e+00  -3.2765325e+00  -3.2831743e+00  -3.2828320e+00  -3.2812165e+00  -3.2916899e+00  -3.3067421e+00  -3.3582001e+00  -3.3445511e+00  -3.3524751e+00  -3.3835875e+00  -3.3579188e+00  -3.3718514e+00  -3.4186317e+00  -3.4088088e+00  -3.3980755e+00  -3.4205521e+00  -3.4492938e+00  -3.4694463e+00  -3.4945808e+00  -3.4963237e+00  -3.5027020e+00  -3.5482231e+00  -3.5337144e+00  -3.5250436e+00  -3.5547093e+00  -3.5706029e+00  -3.5873509e+00  -3.6262126e+00  -3.6110105e+00  -3.5802911e+00  -3.5494587e+00  -3.6046069e+00  -3.5908594e+00  -3.6260523e+00  -3.6262491e+00  -3.6226254e+00  -3.6493988e+00  -3.6680762e+00  -3.6741398e+00  -3.6670133e+00  -3.6956185e+00  -3.6968788e+00  -3.7144007e+00  -3.7156084e+00  -3.6647621e+00  -3.7089626e+00  -3.7098543e+00  -3.7172665e+00  -3.7224836e+00  -3.7189884e+00  -3.7271665e+00  -3.7746560e+00  -3.7607646e+00  -3.7544582e+00  -3.7796042e+00  -3.7609498e+00  -3.7469685e+00  -3.7304801e+00  -3.7339535e+00  -3.7725075e+00  -3.8118634e+00  -3.7864126e+00  -3.8119397e+00  -3.8113171e+00  -3.7890938e+00  -3.8337305e+00  -3.7782065e+00  -3.7971466e+00  -3.7964787e+00  -3.7802354e+00  -3.7899815e+00  -3.8312901e+00  -3.8047917e+00  -3.7856982e+00  -3.7769158e+00  -3.7835297e+00  -3.8068959e+00  -3.8363906e+00  -3.7768189e+00  -3.7896034e+00  -3.7855355e+00  -3.7844337e+00  -3.7858197e+00  -3.7879203e+00  -3.7992715e+00  -3.7947956e+00  -3.7757407e+00  -3.7835072e+00  -3.7289016e+00  -3.7371354e+00  -3.7490914e+00  -3.7281744e+00  -3.7150486e+00  -3.7105588e+00  -3.7010367e+00  -3.7322673e+00  -3.7194221e+00  -3.7131804e+00  -3.7348613e+00  -3.7251350e+00  -3.7621348e+00  -3.7618971e+00  -3.7542997e+00  -3.7477705e+00  -3.7498096e+00  -3.7301490e+00  -3.7045771e+00  -3.6975275e+00  -3.7235308e+00  -3.7604574e+00  -3.7389639e+00  -3.7398588e+00  -3.8196023e+00  -3.8170999e+00  -3.7759235e+00
-2.1375057e+00  -2.1742327e+00  -2.1468382e+00  -2.1816319e+00  -2.1990905e+00  -2.2121406e+00  -2.2345894e+00  -2.2553365e+00  -2.2577721e+00  -2.3019726e+00  -2.3009547e+00  -2.3559041e+00  -2.3802252e+00  -2.3857357e+00  -2.3633659e+00  -2.3908205e+00  -2.3948314e+00  -2.4375137e+00  -2.4691002e+00  -2.4484590e+00  -2.4497803e+00  -2.4773226e+00  -2.4810429e+00  -2.4908957e+00  -2.5451032e+00  -2.5344741e+00  -2.5359080e+00  -2.5555091e+00  -2.5814620e+00  -2.6032566e+00  -2.6170040e+00  -2.6180942e+00  -2.6427290e+00  -2.6832218e+00  -2.6820082e+00  -2.7235257e+00  -2.7286257e+00  -2.7441780e+00  -2.7687812e+00  -2.7541695e+00  -2.7715793e+00  -2.7973127e+00  -2.8117176e+00  -2.8182249e+00  -2.8723752e+00  -2.9016143e+00  -2.9226147e+00  -2.9180077e+00  -2.9308968e+00  -2.9691024e+00  -2.9678087e+00  -2.9897161e+00  -3.0035004e+00  -3.0135595e+00  -3.0485918e+00  -3.0439157e+00  -3.0631294e+00  -3.0349413e+00  -3.0880081e+00  -3.0827777e+00  -3.0837183e+00  -3.1065858e+00  -3.1459459e+00  -3.1360882e+00  -3.1530078e+00  -3.1870457e+00  -3.1840357e+00  -3.2187398e+00  -3.2277916e+00  -3.2092497e+00  -3.2552107e+00  -3.2590678e+00  -3.2688853e+00  -3.2991977e+00  -3.3220478e+00  -3.3246177e+00  -3.3243264e+00  -3.3453888e+00  -3.3452546e+00  -3.3634782e+00  -3.3919313e+00  -3.3994087e+00  -3.3757992e+00  -3.4292393e+00  -3.3857994e+00  -3.4115976e+00  -3.4438177e+00  -3.4434338e+00  -3.4667503e+00  -3.5267857e+00  -3.5353260e+00  -3.5047233e+00  -3.5106080e+00  -3.5461554e+00  -3.5733219e+00  -3.5980020e+00  -3.5595585e+00  -3.5569313e+00  -3.6051893e+00  -3.6268891e+00  -3.6144290e+00  -3.6232378e+00  -3.6171823e+00  -3.6139138e+00  -3.6488350e+00  -3.6582747e+00  -3.6403326e+00  -3.6711830e+00  -3.6896436e+00  -3.6706025e+00  -3.6959950e+00  -3.7183297e+00  -3.7133375e+00  -3.7480679e+00  -3.7472986e+00  -3.7158914e+00  -3.7737204e+00  -3.7562487e+00  -3.7548845e+00  -3.7629776e+00  -3.7371872e+00  -3.7406187e+00  -3.7968788e+00  -3.7868967e+00  -3.7571708e+00  -3.7734613e+00  -3.7453458e+00  -3.7598146e+00  -3.8106301e+00  -3.7991400e+00  -3.8186558e+00  -3.8775781e+00  -3.8427036e+00  -3.8363597e+00  -3.8480542e+00  -3.8405541e+00  -3.8288284e+00  -3.8368008e+00  -3.8870741e+00  -3.8691633e+00  -3.8533022e+00  -3.8511897e+00  -3.8521021e+00  -3.8173835e+00  -3.8388323e+00  -3.8483866e+00  -3.8532354e+00  -3.8462389e+00  -3.8661832e+00  -3.8168770e+00  -3.8038607e+00  -3.8334421e+00  -3.7990912e+00  -3.8223468e+00  -3.8185259e+00  -3.8281973e+00  -3.8259103e+00  -3.8256947e+00  -3.8226850e+00  -3.8004975e+00  -3.8025404e+00  -3.7764866e+00  -3.7705592e+00  -3.7880451e+00  -3.7750187e+00  -3.7659313e+00  -3.7754065e+00  -3.7652784e+00  -3.7347024e+00  -3.7764895e+00  -3.7792854e+00  -3.7644013e+00  -3.8162922e+00  -3.7965928e+00  -3.8188062e+00  -3.7628872e+00  -3.7928940e+00  -3.7953476e+00  -3.7867586e+00  -3.8028936e+00  -3.8361224e+00  -3.8544648e+00  -3.8793370e+00  -3.8175733e+00  -3.8111854e+00  -3.8183083e+00
-2.0833113e+00  -2.1534526e+00  -2.1075094e+00  -2.1620161e+00  -2.1609529e+00  -2.1798549e+00  -2.2145856e+00  -2.2368288e+00  -2.2506475e+00  -2.2501969e+00  -2.2872399e+00  -2.2860496e+00  -2.3064020e+00  -2.3454659e+00  -2.3663037e+00  -2.3934964e+00  -2.3885605e+00  -2.3941375e+00  -2.4149491e+00  -2.4322430e+00  -2.4496289e+00  -2.4578401e+00  -2.4676920e+00  -2.4733177e+00  -2.5415937e+00  -2.5634935e+00  -2.5434404e+00  -2.5618455e+00  -2.5579556e+00  -2.5862147e+00  -2.5932151e+00  -2.5963001e+00  -2.6199047e+00  -2.6339907e+00  -2.6348463e+00  -2.6910029e+00  -2.7229413e+00  -2.7247458e+00  -2.7302901e+00  -2.7758699e+00  -2.7893526e+00  -2.8115912e+00  -2.8115918e+00  -2.8073948e+00  -2.8175067e+00  -2.8535357e+00  -2.8826221e+00  -2.8982533e+00  -2.9369850e+00  -2.9076929e+00  -2.9756105e+00  -2.9957258e+00  -3.0110216e+00  -3.0054399e+00  -3.0155378e+00  -3.0400278e+00  -3.0696241e+00  -3.0955914e+00  -3.0854479e+00  -3.1033679e+00  -3.0918919e+00  -3.1313908e+00  -3.1579043e+00  -3.1413038e+00  -3.1590284e+00  -3.1977808e+00  -3.2017480e+00  -3.2099772e+00  -3.2448545e+00  -3.2731495e+00  -3.2960979e+00  -3.2851519e+00  -3.2669832e+00  -3.2618158e+00  -3.2904172e+00  -3.3103949e+00  -3.3353173e+00  -3.3473001e+00  -3.3636928e+00  -3.3839734e+00  -3.4306645e+00  -3.3960672e+00  -3.4262377e+00  -3.4178566e+00  -3.4287513e+00  -3.4145481e+00  -3.4522516e+00  -3.4615158e+00  -3.4588913e+00  -3.4944872e+00  -3.5220652e+00  -3.5433715e+00  -3.5830953e+00  -3.5617225e+00  -3.6152061e+00  -3.6083707e+00  -3.5696106e+00  -3.5740321e+00  -3.6360540e+00  -3.6445497e+00  -3.6329201e+00  -3.6544699e+00  -3.6523502e+00  -3.6693493e+00  -3.7208154e+00  -3.7100048e+00  -3.7198600e+00  -3.6699055e+00  -3.6957928e+00  -3.7145579e+00  -3.7404737e+00  -3.7795774e+00  -3.7723208e+00  -3.7632646e+00  -3.7852508e+00  -3.7549931e+00  -3.7487305e+00  -3.8064313e+00  -3.7827297e+00  -3.8205171e+00  -3.8159892e+00  -3.7824652e+00  -3.8328831e+00  -3.8193161e+00  -3.8305617e+00  -3.8514352e+00  -3.8470077e+00  -3.8650847e+00  -3.8592876e+00  -3.8773979e+00  -3.8609876e+00  -3.9094276e+00  -3.9010938e+00  -3.8997057e+00  -3.9233143e+00  -3.9151556e+00  -3.8970201e+00  -3.9204053e+00  -3.9200249e+00  -3.9441982e+00  -3.8911602e+00  -3.8600610e+00  -3.8901104e+00  -3.9052672e+00  -3.9089952e+00  -3.8939636e+00  -3.9131162e+00  -3.9180002e+00  -3.9055656e+00  -3.9076486e+00  -3.8997582e+00  -3.8501630e+00  -3.8913638e+00  -3.8940950e+00  -3.8866103e+00  -3.9031806e+00  -3.8852488e+00  -3.8508422e+00  -3.8259810e+00  -3.8747191e+00  -3.8847647e+00  -3.8498969e+00  -3.8328663e+00  -3.8359451e+00  -3.8022419e+00  -3.8367311e+00  -3.8520853e+00  -3.8350548e+00  -3.8341339e+00  -3.8442715e+00  -3.8398782e+00  -3.8463524e+00  -3.8369283e+00  -3.8182853e+00  -3.8709379e+00  -3.8544065e+00  -3.8576954e+00  -3.8668044e+00  -3.8838595e+00  -3.8825958e+00  -3.8787935e+00  -3.8804083e+00  -3.8832096e+00  -3.8418682e+00  -3.8578326e+00  -3.8285216e+00
-2.0803598e+00  -2.0765609e+00  -2.1313606e+00  -2.1523485e+00  -2.1665153e+00  -2.1960970e+00  -2.2087389e+00  -2.2162708e+00  -2.2440034e+00  -2.2564522e+00  -2.2712318e+00  -2.2776095e+00  -2.2954086e+00  -2.3092943e+00  -2.3556807e+00  -2.3348505e+00  -2.3216366e+00  -2.3612602e+00  -2.3970390e+00  -2.4250554e+00  -2.4493587e+00  -2.4538732e+00  -2.4412087e+00  -2.4729794e+00  -2.4958092e+00  -2.4815765e+00  -2.4756676e+00  -2.5359546e+00  -2.5466864e+00  -2.5841115e+00  -2.5813381e+00  -2.5717763e+00  -2.5975110e+00  -2.6489080e+00  -2.6364807e+00  -2.6636183e+00  -2.6895637e+00  -2.6979528e+00  -2.7548108e+00  -2.7935094e+00  -2.7636627e+00  -2.8079189e+00  -2.8176106e+00  -2.8165294e+00  -2.8400784e+00  -2.8544146e+00  -2.8545979e+00  -2.9235418e+00  -2.9365086e+00  -2.8908500e+00  -2.9188528e+00  -2.9382646e+00  -2.9296481e+00  -2.9620911e+00  -3.0005391e+00  -3.0377741e+00  -3.0274164e+00  -3.0412086e+00  -3.0908010e+00  -3.0685080e+00  -3.0896062e+00  -3.1251933e+00  -3.1032818e+00  -3.1211602e+00  -3.1495887e+00  -3.1688163e+00  -3.1872701e+00  -3.1919141e+00  -3.1934580e+00  -3.2332469e+00  -3.2719174e+00  -3.2691280e+00  -3.2892622e+00  -3.2697697e+00  -3.3035697e+00  -3.2936402e+00  -3.3259928e+00  -3.3604698e+00  -3.3934347e+00  -3.3982932e+00  -3.4251160e+00  -3.4290040e+00  -3.4298567e+00  -3.4385548e+00  -3.4604673e+00  -3.4896894e+00  -3.4617672e+00  -3.4736678e+00  -3.4969496e+00  -3.5429159e+00  -3.5293486e+00  -3.5371942e+00  -3.5735299e+00  -3.5806315e+00  -3.5856893e+00  -3.6306911e+00  -3.6216667e+00  -3.6236947e+00  -3.6454882e+00  -3.6724520e+00  -3.6622998e+00  -3.6747255e+00  -3.6643522e+00  -3.6798411e+00  -3.7403941e+00  -3.7551314e+00  -3.7382799e+00  -3.7586928e+00  -3.7870411e+00  -3.7478278e+00  -3.7624137e+00  -3.7758690e+00  -3.7469977e+00  -3.8015298e+00  -3.8058962e+00  -3.8171052e+00  -3.8439252e+00  -3.8605162e+00  -3.8257126e+00  -3.8459782e+00  -3.8484825e+00  -3.8396079e+00  -3.8703416e+00  -3.8872546e+00  -3.9117080e+00  -3.8980330e+00  -3.9096031e+00  -3.9263822e+00  -3.9296796e+00  -3.9511191e+00  -3.9324411e+00  -3.9803539e+00  -3.9659389e+00  -3.9706164e+00  -3.9227298e+00  -3.9282570e+00  -3.9225456e+00  -3.8737303e+00  -3.9098629e+00  -3.9353950e+00  -3.9328797e+00  -3.8963304e+00  -3.9563853e+00  -3.9554764e+00  -3.9377014e+00  -3.9547539e+00  -3.9636485e+00  -3.9502339e+00  -3.9427954e+00  -3.9499178e+00  -3.9375121e+00  -3.9434108e+00  -3.9447651e+00  -3.9286203e+00  -3.9307916e+00  -3.9208678e+00  -3.9093346e+00  -3.9154255e+00  -3.9225108e+00  -3.9155800e+00  -3.8936567e+00  -3.9079959e+00  -3.8979954e+00  -3.8773681e+00  -3.8314805e+00  -3.8774354e+00  -3.9326292e+00  -3.8724477e+00  -3.9013443e+00  -3.8615916e+00  -3.8431902e+00  -3.8501355e+00  -3.8492906e+00  -3.8704777e+00  -3.8768308e+00  -3.8860794e+00  -3.8958872e+00  -3.9512126e+00  -3.8970932e+00  -3.8894593e+00  -3.8953690e+00  -3.9307432e+00  -3.9218878e+00  -3.8909243e+00  -3.8838870e+00  -3.8657534e+00
-2.0709003e+00  -2.0858034e+00  -2.1164377e+00  -2.1181020e+00  -2.1462706e+00  -2.1368309e+00  -2.1850090e+00  -2.1819023e+00  -2.2061505e+00  -2.2331132e+00  -2.2432202e+00  -2.2560450e+00  -2.2744898e+00  -2.2884375e+00  -2.3256252e+00  -2.3390863e+00  -2.3503959e+00  -2.3504699e+00  -2.3880117e+00  -2.3901123e+00  -2.3886477e+00  -2.4161093e+00  -2.4207462e+00  -2.4249332e+00  -2.4075971e+00  -2.4044361e+00  -2.4635015e+00  -2.4905409e+00  -2.4955134e+00  -2.5160849e+00  -2.5327240e+00  -2.5169599e+00  -2.5751033e+00  -2.6027828e+00  -2.6145561e+00  -2.6678160e+00  -2.6909429e+00  -2.7098797e+00  -2.7422721e+00  -2.7366881e+00  -2.7491235e+00  -2.7451824e+00  -2.7812691e+00  -2.8188551e+00  -2.8457113e+00  -2.8195829e+00  -2.8342325e+00  -2.8733121e+00  -2.8875319e+00  -2.8793889e+00  -2.9147343e+00  -2.9480786e+00  -2.9112239e+00  -2.9785048e+00  -3.0072061e+00  -2.9970477e+00  -3.0161909e+00  -3.0432756e+00  -3.0494440e+00  -3.0809478e+00  -3.0993346e+00  -3.1019881e+00  -3.1138251e+00  -3.1456838e+00  -3.1590629e+00  -3.1582002e+00  -3.1813964e+00  -3.1864032e+00  -3.1959675e+00  -3.2369911e+00  -3.2521575e+00  -3.2700926e+00  -3.2809047e+00  -3.3011809e+00  -3.3110199e+00  -3.3180509e+00  -3.3276459e+00  -3.3785496e+00  -3.3910121e+00  -3.3969899e+00  -3.4254901e+00  -3.4381240e+00  -3.4434175e+00  -3.4686083e+00  -3.4897565e+00  -3.4775659e+00  -3.4933954e+00  -3.5217303e+00  -3.5033323e+00  -3.5613275e+00  -3.5747295e+00  -3.5871727e+00  -3.6157142e+00  -3.6062294e+00  -3.6004207e+00  -3.6706272e+00  -3.6565700e+00  -3.6615526e+00  -3.6933555e+00  -3.6439901e+00  -3.6512150e+00  -3.7296656e+00  -3.7163790e+00  -3.7169239e+00  -3.7532612e+00  -3.7757002e+00  -3.7705153e+00  -3.7697396e+00  -3.8198840e+00  -3.8200312e+00  -3.7642118e+00  -3.8635268e+00  -3.8224838e+00  -3.8307327e+00  -3.8309993e+00  -3.8668803e+00  -3.8881915e+00  -3.8590298e+00  -3.8649910e+00  -3.8677221e+00  -3.8572734e+00  -3.8717606e+00  -3.9070692e+00  -3.9402566e+00  -3.9425548e+00  -3.8949150e+00  -3.9443224e+00  -3.9624127e+00  -3.9585143e+00  -3.9687193e+00  -3.9903543e+00  -4.0087251e+00  -4.0042635e+00  -4.0185459e+00  -3.9929270e+00  -3.9762153e+00  -3.9897692e+00  -4.0249161e+00  -4.0193634e+00  -4.0284930e+00  -3.9962693e+00  -3.9794344e+00  -4.0029164e+00  -3.9741048e+00  -3.9654160e+00  -3.9831511e+00  -3.9741872e+00  -3.9832124e+00  -3.9655314e+00  -3.9664803e+00  -3.9789961e+00  -3.9778287e+00  -3.9513225e+00  -3.9406076e+00  -3.9540570e+00  -3.9645514e+00  -3.9736666e+00  -3.9527298e+00  -3.9513968e+00  -3.9597885e+00  -3.9405513e+00  -3.9212059e+00  -3.9007240e+00  -3.9136562e+00  -3.9162100e+00  -3.9068961e+00  -3.8697205e+00  -3.8694557e+00  -3.8936513e+00  -3.8739691e+00  -3.9236212e+00  -3.9199870e+00  -3.9071310e+00  -3.9063158e+00  -3.8989054e+00  -3.8936959e+00  -3.8632167e+00  -3.8849571e+00  -3.9203898e+00  -3.9451592e+00  -3.9118343e+00  -3.9320033e+00  -3.9136646e+00  -3.9352928e+00  -3.9401917e+00  -3.9120961e+00
-2.0623233e+00  -2.0652305e+00  -2.0934498e+00  -2.1029059e+00  -2.1142215e+00  -2.0960131e+00  -2.1358382e+00  -2.1739880e+00  -2.1743459e+00  -2.2003881e+00  -2.2640692e+00  -2.2677225e+00  -2.2462586e+00  -2.2572549e+00  -2.2909465e+00  -2.3401708e+00  -2.3299761e+00  -2.3503453e+00  -2.3882079e+00  -2.3315164e+00  -2.3536544e+00  -2.4234883e+00  -2.4539032e+00  -2.4531173e+00  -2.4170666e+00  -2.4055535e+00  -2.4451571e+00  -2.4699203e+00  -2.4724142e+00  -2.4599115e+00  -2.5275356e+00  -2.5413772e+00  -2.5801177e+00  -2.5849078e+00  -2.6388094e+00  -2.6356088e+00  -2.6467365e+00  -2.6749596e+00  -2.6995737e+00  -2.7450276e+00  -2.7295167e+00  -2.7409505e+00  -2.7830230e+00  -2.7273841e+00  -2.7317061e+00  -2.8124958e+00  -2.8170432e+00  -2.8455771e+00  -2.8784353e+00  -2.8971882e+00  -2.9223075e+00  -2.9331953e+00  -2.9555523e+00  -2.9734529e+00  -2.9521587e+00  -2.9887744e+00  -3.0250569e+00  -3.0145430e+00  -3.0072074e+00  -3.0468282e+00  -3.0768560e+00  -3.0870146e+00  -3.1115968e+00  -3.1256285e+00  -3.1742013e+00  -3.1818261e+00  -3.1492590e+00  -3.1975014e+00  -3.2008365e+00  -3.2187705e+00  -3.2313564e+00  -3.2452461e+00  -3.2713334e+00  -3.3103237e+00  -3.3187385e+00  -3.3172217e+00  -3.3760213e+00  -3.3760156e+00  -3.3901635e+00  -3.4017969e+00  -3.4480081e+00  -3.4732815e+00  -3.4753810e+00  -3.4617868e+00  -3.5086419e+00  -3.5244694e+00  -3.5023016e+00  -3.5354352e+00  -3.5421535e+00  -3.5502537e+00  -3.5698171e+00  -3.5865651e+00  -3.6185076e+00  -3.6306774e+00  -3.6488992e+00  -3.6961126e+00  -3.7078601e+00  -3.7067375e+00  -3.6933033e+00  -3.7101937e+00  -3.7332887e+00  -3.7425641e+00  -3.7491882e+00  -3.7631340e+00  -3.7733572e+00  -3.8110828e+00  -3.8060946e+00  -3.8197491e+00  -3.8292077e+00  -3.8115261e+00  -3.8284020e+00  -3.8625881e+00  -3.8947077e+00  -3.8706978e+00  -3.8715422e+00  -3.8635756e+00  -3.9080798e+00  -3.9286628e+00  -3.9383212e+00  -3.9159995e+00  -3.9018785e+00  -3.9351648e+00  -3.9469920e+00  -3.9542618e+00  -3.9704593e+00  -3.9743044e+00  -3.9931102e+00  -3.9771848e+00  -3.9817923e+00  -3.9785605e+00  -4.0111674e+00  -4.0092917e+00  -3.9924104e+00  -4.0199319e+00  -3.9813505e+00  -3.9688319e+00  -3.9792584e+00  -3.9733008e+00  -3.9433265e+00  -4.0056760e+00  -3.9905571e+00  -3.9765167e+00  -3.9557732e+00  -3.9424157e+00  -3.9619959e+00  -3.9888762e+00  -3.9838703e+00  -4.0208268e+00  -3.9820955e+00  -4.0135969e+00  -4.0459123e+00  -3.9773282e+00  -3.9652050e+00  -3.9725610e+00  -3.9648505e+00  -3.9739538e+00  -4.0028146e+00  -3.9301055e+00  -3.9250074e+00  -3.9736764e+00  -3.9199986e+00  -3.9461099e+00  -3.9136353e+00  -3.9130209e+00  -3.9257978e+00  -3.9350856e+00  -3.9299658e+00  -3.9240088e+00  -3.9107265e+00  -3.9472456e+00  -3.8888812e+00  -3.9244881e+00  -3.9551613e+00  -3.9259144e+00  -3.9037838e+00  -3.9272025e+00  -3.9257948e+00  -3.9331168e+00  -3.9443780e+00  -3.9379700e+00  -3.9506441e+00  -3.9137315e+00  -3.8851689e+00  -3.9048945e+00  -3.9335116e+00  -3.9111731e+00
-2.0386837e+00  -2.0716689e+00  -2.0690555e+00  -2.0963164e+00  -2.0969947e+00  -2.0685472e+00  -2.1114525e+00  -2.1487594e+00  -2.1794517e+00  -2.2046813e+00  -2.1702174e+00  -2.1968765e+00  -2.2270407e+00  -2.2394081e+00  -2.2123159e+00  -2.2334620e+00  -2.2713289e+00  -2.2719864e+00  -2.2861554e+00  -2.3032030e+00  -2.3353894e+00  -2.3409488e+00  -2.3260740e+00  -2.3849103e+00  -2.4155095e+00  -2.4135078e+00  -2.4202646e+00  -2.4474732e+00  -2.4680157e+00  -2.4774834e+00  -2.5126665e+00  -2.5134170e+00  -2.4928269e+00  -2.5870395e+00  -2.5905890e+00  -2.6121570e+00  -2.6012584e+00  -2.6215507e+00  -2.6862817e+00  -2.7259992e+00  -2.7005730e+00  -2.6830871e+00  -2.7237560e+00  -2.7488766e+00  -2.7498377e+00  -2.7708050e+00  -2.8009317e+00  -2.8323010e+00  -2.8399171e+00  -2.8545289e+00  -2.8752311e+00  -2.8871796e+00  -2.9443116e+00  -2.9515769e+00  -2.9492169e+00  -2.9792153e+00  -3.0284120e+00  -3.0450553e+00  -2.9815252e+00  -3.0167552e+00  -3.0622294e+00  -3.0890132e+00  -3.0966862e+00  -3.1153894e+00  -3.1372486e+00  -3.1554785e+00  -3.1758819e+00  -3.1864860e+00  -3.1874753e+00  -3.2434768e+00  -3.2107080e+00  -3.2390193e+00  -3.2605002e+00  -3.2725203e+00  -3.3133970e+00  -3.3329459e+00  -3.3235475e+00  -3.3826242e+00  -3.3909252e+00  -3.3937013e+00  -3.4447683e+00  -3.4707059e+00  -3.4935002e+00  -3.4918848e+00  -3.5282315e+00  -3.5202652e+00  -3.5238426e+00  -3.5558657e+00  -3.5509545e+00  -3.5660845e+00  -3.6089824e+00  -3.5448680e+00  -3.6347951e+00  -3.6485990e+00  -3.6766831e+00  -3.6857931e+00  -3.7146960e+00  -3.7176059e+00  -3.7166320e+00  -3.7518013e+00  -3.7593230e+00  -3.7659781e+00  -3.8097732e+00  -3.7961485e+00  -3.7833625e+00  -3.8481122e+00  -3.8465891e+00  -3.8429430e+00  -3.8497175e+00  -3.8516025e+00  -3.8765747e+00  -3.8791624e+00  -3.8859421e+00  -3.8891342e+00  -3.9389342e+00  -3.9693091e+00  -3.9706139e+00  -3.9720878e+00  -3.9471950e+00  -3.9696796e+00  -3.9711662e+00  -3.9915958e+00  -4.0084156e+00  -4.0032622e+00  -4.0228581e+00  -3.9887537e+00  -3.9885938e+00  -3.9845384e+00  -3.9686529e+00  -4.0104678e+00  -4.0405417e+00  -4.0271844e+00  -4.0383706e+00  -4.0581652e+00  -4.0276764e+00  -4.0222379e+00  -4.0449151e+00  -4.0341296e+00  -4.0649260e+00  -4.0406688e+00  -4.0149714e+00  -4.0565285e+00  -4.0463206e+00  -4.0360308e+00  -4.0396240e+00  -4.0338343e+00  -4.0178122e+00  -4.0281930e+00  -4.0031285e+00  -3.9978008e+00  -4.0358129e+00  -3.9978082e+00  -4.0228114e+00  -4.0080646e+00  -3.9951284e+00  -4.0080288e+00  -4.0181592e+00  -4.0072905e+00  -4.0089612e+00  -3.9725061e+00  -3.9299287e+00  -3.9482836e+00  -3.9165412e+00  -3.9219937e+00  -3.9376419e+00  -3.9489555e+00  -3.9427016e+00  -3.9370065e+00  -3.9327256e+00  -3.9384917e+00  -3.9510394e+00  -3.9419686e+00  -3.9477116e+00  -3.9282631e+00  -3.9405903e+00  -3.9181452e+00  -3.9079467e+00  -3.8875050e+00  -3.8752629e+00  -3.9040653e+00  -3.9586782e+00  -3.9726672e+00  -3.9591654e+00  -3.9451523e+00  -3.9590916e+00  -3.9730375e+00
-1.9812148e+00  -2.0136376e+00  -2.0467730e+00  -2.0521494e+00  -2.1050005e+00  -2.0957838e+00  -2.1297719e+00  -2.1368200e+00  -2.1267693e+00  -2.1507194e+00  -2.1782053e+00  -2.2065316e+00  -2.2269733e+00  -2.2477361e+00  -2.2196052e+00  -2.2246433e+00  -2.2311846e+00  -2.2545232e+00  -2.2965237e+00  -2.2737242e+00  -2.2638927e+00  -2.3091387e+00  -2.3527175e+00  -2.3703730e+00  -2.3701083e+00  -2.3544542e+00  -2.3817500e+00  -2.4417656e+00  -2.4504817e+00  -2.4576342e+00  -2.4839728e+00  -2.4851792e+00  -2.5192321e+00  -2.5115046e+00  -2.5349645e+00  -2.5043161e+00  -2.5903904e+00  -2.6626350e+00  -2.6288498e+00  -2.6306361e+00  -2.6443646e+00  -2.6835496e+00  -2.7067196e+00  -2.7165517e+00  -2.7534776e+00  -2.7821785e+00  -2.7755515e+00  -2.7894827e+00  -2.8050957e+00  -2.8373732e+00  -2.8454355e+00  -2.8807755e+00  -2.8729357e+00  -2.8812715e+00  -2.9289701e+00  -2.9458853e+00  -2.9306613e+00  -3.0075425e+00  -2.9951898e+00  -3.0455468e+00  -3.0282277e+00  -3.0624597e+00  -3.1082290e+00  -3.1286001e+00  -3.1137832e+00  -3.1331801e+00  -3.1779647e+00  -3.1872316e+00  -3.1878534e+00  -3.2293982e+00  -3.2401045e+00  -3.2373520e+00  -3.2518202e+00  -3.2709313e+00  -3.3001743e+00  -3.3398439e+00  -3.3780567e+00  -3.4186870e+00  -3.4217778e+00  -3.4336127e+00  -3.4576031e+00  -3.4527081e+00  -3.4937451e+00  -3.5278008e+00  -3.5641279e+00  -3.5374291e+00  -3.5210784e+00  -3.5437196e+00  -3.5568957e+00  -3.5989527e+00  -3.6444751e+00  -3.6447955e+00  -3.7066398e+00  -3.7229291e+00  -3.6965385e+00  -3.7006882e+00  -3.7200443e+00  -3.7342512e+00  -3.7727121e+00  -3.7953798e+00  -3.8167571e+00  -3.8227837e+00  -3.8053194e+00  -3.8315751e+00  -3.8634627e+00  -3.8439887e+00  -3.8416982e+00  -3.9064100e+00  -3.8984784e+00  -3.9273365e+00  -3.9229798e+00  -3.8990833e+00  -3.9491578e+00  -3.9802010e+00  -3.9669978e+00  -4.0077416e+00  -4.0120006e+00  -4.0332722e+00  -4.0418727e+00  -4.0607118e+00  -4.0586846e+00  -4.0779608e+00  -4.0572039e+00  -4.0147567e+00  -4.0196726e+00  -4.0370107e+00  -4.1046173e+00  -4.0826941e+00  -4.0870192e+00  -4.1003148e+00  -4.1235905e+00  -4.0646524e+00  -4.0850896e+00  -4.1116677e+00  -4.0819336e+00  -4.0729125e+00  -4.0887356e+00  -4.1011572e+00  -4.1000686e+00  -4.0595395e+00  -4.0905746e+00  -4.1045665e+00  -4.0947989e+00  -4.0874365e+00  -4.0922178e+00  -4.0805108e+00  -4.0639959e+00  -4.0841869e+00  -4.0740816e+00  -4.1112511e+00  -4.1286283e+00  -4.0587215e+00  -4.0535481e+00  -4.0368317e+00  -4.0231752e+00  -4.0153086e+00  -4.0021988e+00  -4.0174385e+00  -4.0049374e+00  -3.9727580e+00  -3.9907103e+00  -3.9866368e+00  -3.9799873e+00  -3.9527088e+00  -4.0168476e+00  -4.0007864e+00  -3.9948168e+00  -3.9996894e+00  -3.9804023e+00  -3.9976110e+00  -4.0120504e+00  -3.9799807e+00  -3.9866986e+00  -3.9442016e+00  -3.9596461e+00  -3.9430739e+00  -3.9536245e+00  -3.9747488e+00  -3.9466763e+00  -3.9548319e+00  -3.9922979e+00  -3.9856205e+00  -3.9686610e+00  -3.9661395e+00  -3.9997034e+00  -4.0305279e+00
-2.0085408e+00  -2.0429372e+00  -2.0026250e+00  -2.0423703e+00  -2.0454030e+00  -2.0491653e+00  -2.1040192e+00  -2.0987280e+00  -2.0761539e+00  -2.0936309e+00  -2.1240557e+00  -2.1404563e+00  -2.1790008e+00  -2.1688972e+00  -2.1467267e+00  -2.1625306e+00  -2.1598990e+00  -2.1786742e+00  -2.2074309e+00  -2.2568985e+00  -2.2495072e+00  -2.2814117e+00  -2.3068939e+00  -2.2926488e+00  -2.3260659e+00  -2.3568610e+00  -2.3523021e+00  -2.3833443e+00  -2.3541520e+00  -2.4225495e+00  -2.4755047e+00  -2.4633290e+00  -2.4873564e+00  -2.5353263e+00  -2.5466225e+00  -2.5766671e+00  -2.5570895e+00  -2.6144801e+00  -2.6102594e+00  -2.6262024e+00  -2.5979892e+00  -2.6667202e+00  -2.7116844e+00  -2.7214341e+00  -2.7178911e+00  -2.7264402e+00  -2.7226225e+00  -2.7534853e+00  -2.7758721e+00  -2.8088165e+00  -2.8334370e+00  -2.8444788e+00  -2.8877954e+00  -2.9149371e+00  -2.9164376e+00  -2.9441571e+00  -2.9783124e+00  -2.9775438e+00  -2.9618583e+00  -3.0067118e+00  -3.0110017e+00  -3.0376867e+00  -3.0917938e+00  -3.0757847e+00  -3.1116181e+00  -3.1491704e+00  -3.1604377e+00  -3.1753518e+00  -3.1931349e+00  -3.2114853e+00  -3.2351248e+00  -3.2451122e+00  -3.2575578e+00  -3.2774890e+00  -3.3119106e+00  -3.3087762e+00  -3.3520239e+00  -3.3539588e+00  -3.3817223e+00  -3.4197648e+00  -3.4581513e+00  -3.4459331e+00  -3.4219443e+00  -3.4922641e+00  -3.5352714e+00  -3.5887875e+00  -3.5794937e+00  -3.5829249e+00  -3.5944650e+00  -3.6213400e+00  -3.6502006e+00  -3.6742271e+00  -3.7015310e+00  -3.7101778e+00  -3.7036268e+00  -3.7686490e+00  -3.7648663e+00  -3.7575197e+00  -3.8010637e+00  -3.7848944e+00  -3.8157564e+00  -3.8342141e+00  -3.8651992e+00  -3.8910226e+00  -3.8672896e+00  -3.8798317e+00  -3.9041886e+00  -3.9642236e+00  -3.9772476e+00  -3.9972100e+00  -4.0120242e+00  -4.0180416e+00  -4.0041534e+00  -4.0151281e+00  -4.0322075e+00  -4.0395285e+00  -4.0562597e+00  -4.0620613e+00  -4.0642791e+00  -4.0366178e+00  -4.0722525e+00  -4.0824293e+00  -4.0993147e+00  -4.1368083e+00  -4.1561251e+00  -4.1351231e+00  -4.1436182e+00  -4.1318260e+00  -4.1171281e+00  -4.1427887e+00  -4.1189070e+00  -4.1085702e+00  -4.1006935e+00  -4.1227428e+00  -4.1562304e+00  -4.1948567e+00  -4.1962861e+00  -4.1559865e+00  -4.1639779e+00  -4.1522110e+00  -4.1000501e+00  -4.1715047e+00  -4.1368018e+00  -4.1872085e+00  -4.1779721e+00  -4.1591977e+00  -4.1783744e+00  -4.1760365e+00  -4.1517806e+00  -4.1370190e+00  -4.1448865e+00  -4.1138527e+00  -4.1020537e+00  -4.0959709e+00  -4.0869367e+00  -4.1133129e+00  -4.1215300e+00  -4.1075819e+00  -4.1039362e+00  -4.0625256e+00  -4.0695862e+00  -4.0731622e+00  -4.0528055e+00  -4.0292329e+00  -4.0626689e+00  -4.0732205e+00  -4.0728030e+00  -4.0549252e+00  -4.0584507e+00  -4.0659771e+00  -4.0868113e+00  -4.0879396e+00  -4.0490463e+00  -4.0327124e+00  -4.0377621e+00  -4.0170041e+00  -4.0144672e+00  -4.0373790e+00  -4.0365984e+00  -4.0506107e+00  -4.0319058e+00  -4.0266425e+00  -4.0682457e+00  -4.0894392e+00  -4.0591535e+00  -4.0565753e+00
-1.9360739e+00  -1.9743517e+00  -2.0006171e+00  -1.9459326e+00  -2.0066934e+00  -1.9928150e+00  -2.0366696e+00  -2.0462523e+00  -2.0633395e+00  -2.0788903e+00  -2.1112538e+00  -2.1009084e+00  -2.1054285e+00  -2.1429073e+00  -2.1826701e+00  -2.1656186e+00  -2.1628116e+00  -2.1512252e+00  -2.1768958e+00  -2.1906099e+00  -2.2123275e+00  -2.2719034e+00  -2.2766855e+00  -2.2779973e+00  -2.3112974e+00  -2.3395075e+00  -2.3363618e+00  -2.3679221e+00  -2.3936100e+00  -2.3767158e+00  -2.4333781e+00  -2.4393952e+00  -2.4477015e+00  -2.4695779e+00  -2.4664472e+00  -2.5023621e+00  -2.5415303e+00  -2.5607284e+00  -2.5484188e+00  -2.5990385e+00  -2.6194785e+00  -2.6646511e+00  -2.6319843e+00  -2.6671081e+00  -2.6799606e+00  -2.6763131e+00  -2.6882433e+00  -2.7267688e+00  -2.7314563e+00  -2.7575192e+00  -2.7704436e+00  -2.8164385e+00  -2.8534256e+00  -2.8629955e+00  -2.8692028e+00  -2.8866778e+00  -2.9259258e+00  -2.9349300e+00  -2.9562382e+00  -2.9847665e+00  -2.9832380e+00  -2.9879110e+00  -3.0816166e+00  -3.0857817e+00  -3.0940888e+00  -3.1237707e+00  -3.1256541e+00  -3.1410634e+00  -3.1930830e+00  -3.2135895e+00  -3.2282309e+00  -3.2698625e+00  -3.2593273e+00  -3.3113704e+00  -3.3092708e+00  -3.3386614e+00  -3.3461256e+00  -3.3891971e+00  -3.3900537e+00  -3.3923020e+00  -3.4246083e+00  -3.4332182e+00  -3.4705034e+00  -3.5168282e+00  -3.5292009e+00  -3.5733560e+00  -3.6008154e+00  -3.5957897e+00  -3.6305046e+00  -3.6068701e+00  -3.6742419e+00  -3.7070742e+00  -3.7131114e+00  -3.7238524e+00  -3.7306733e+00  -3.7669549e+00  -3.8179074e+00  -3.8491214e+00  -3.8165603e+00  -3.8235422e+00  -3.8828341e+00  -3.8994686e+00  -3.9111223e+00  -3.9161098e+00  -3.9181803e+00  -3.9170060e+00  -3.9676551e+00  -3.9754822e+00  -3.9891406e+00  -3.9860634e+00  -4.0285310e+00  -4.0233617e+00  -4.0383136e+00  -4.0688508e+00  -4.0693155e+00  -4.0898768e+00  -4.1088960e+00  -4.1398260e+00  -4.1484412e+00  -4.1412766e+00  -4.1296218e+00  -4.1489063e+00  -4.1496079e+00  -4.1715274e+00  -4.1794405e+00  -4.1676583e+00  -4.1980425e+00  -4.2025694e+00  -4.2037679e+00  -4.2103966e+00  -4.1773838e+00  -4.2153478e+00  -4.2477699e+00  -4.2241374e+00  -4.2094197e+00  -4.2134575e+00  -4.2174412e+00  -4.2437595e+00  -4.2242684e+00  -4.2005296e+00  -4.1954509e+00  -4.2276255e+00  -4.2179627e+00  -4.1981450e+00  -4.2484238e+00  -4.2136503e+00  -4.2227881e+00  -4.2288416e+00  -4.1772634e+00  -4.1780770e+00  -4.1794373e+00  -4.1352407e+00  -4.1625615e+00  -4.1609396e+00  -4.1802072e+00  -4.1861747e+00  -4.1210937e+00  -4.1472296e+00  -4.1645568e+00  -4.1683685e+00  -4.1427674e+00  -4.1370328e+00  -4.1356611e+00  -4.1483897e+00  -4.1248008e+00  -4.1239475e+00  -4.1661086e+00  -4.1558144e+00  -4.1301794e+00  -4.1347765e+00  -4.1103195e+00  -4.0866914e+00  -4.0992202e+00  -4.0992744e+00  -4.0966298e+00  -4.0854834e+00  -4.0695655e+00  -4.0641693e+00  -4.1257384e+00  -4.1051550e+00  -4.1281305e+00  -4.1146618e+00  -4.1455190e+00  -4.1709545e+00  -4.1529502e+00  -4.1531057e+00
-1.9814816e+00  -2.0077388e+00  -1.9688333e+00  -1.9947315e+00  -1.9924568e+00  -1.9865561e+00  -2.0500803e+00  -2.0359718e+00  -2.0495956e+00  -2.0838306e+00  -2.0827002e+00  -2.1054899e+00  -2.1372241e+00  -2.1381578e+00  -2.1196787e+00  -2.1288846e+00  -2.1359127e+00  -2.1232276e+00  -2.1275917e+00  -2.1816342e+00  -2.1900663e+00  -2.1948719e+00  -2.2454352e+00  -2.2577689e+00  -2.2710803e+00  -2.2978883e+00  -2.3121636e+00  -2.3304619e+00  -2.3504994e+00  -2.3770720e+00  -2.3910588e+00  -2.3915196e+00  -2.4122747e+00  -2.4335604e+00  -2.4680089e+00  -2.4713786e+00  -2.4779440e+00  -2.5121548e+00  -2.5207219e+00  -2.5105134e+00  -2.5603450e+00  -2.5832573e+00  -2.6257871e+00  -2.6061047e+00  -2.6539766e+00  -2.6751784e+00  -2.6954396e+00  -2.6895319e+00  -2.6835815e+00  -2.7167452e+00  -2.7602720e+00  -2.7691548e+00  -2.7853919e+00  -2.8311108e+00  -2.8418712e+00  -2.8900384e+00  -2.9159932e+00  -2.9307240e+00  -2.9417563e+00  -2.9774026e+00  -3.0027473e+00  -3.0245298e+00  -3.0481149e+00  -3.0927833e+00  -3.0621305e+00  -3.1032832e+00  -3.1255443e+00  -3.1486294e+00  -3.1594893e+00  -3.1486230e+00  -3.2220612e+00  -3.2336767e+00  -3.2177309e+00  -3.2738973e+00  -3.3084077e+00  -3.3009000e+00  -3.3365514e+00  -3.3986628e+00  -3.3775532e+00  -3.3947368e+00  -3.4532029e+00  -3.4534938e+00  -3.4750696e+00  -3.4890541e+00  -3.5306395e+00  -3.5775049e+00  -3.5812430e+00  -3.6235675e+00  -3.6567243e+00  -3.6440120e+00  -3.6454109e+00  -3.7006455e+00  -3.7054569e+00  -3.7121745e+00  -3.7650227e+00  -3.7894092e+00  -3.8074804e+00  -3.8342496e+00  -3.8741957e+00  -3.8293362e+00  -3.9145727e+00  -3.9092962e+00  -3.9109141e+00  -3.9134913e+00  -4.0000432e+00  -4.0047764e+00  -4.0058945e+00  -4.0151963e+00  -4.0309908e+00  -4.0672539e+00  -4.0793545e+00  -4.0780946e+00  -4.1030084e+00  -4.1231850e+00  -4.1314223e+00  -4.1302242e+00  -4.1393486e+00  -4.1562314e+00  -4.1784306e+00  -4.2072382e+00  -4.2167653e+00  -4.2018571e+00  -4.1925320e+00  -4.2347409e+00  -4.2495612e+00  -4.1984445e+00  -4.2528178e+00  -4.2864087e+00  -4.2522453e+00  -4.2444604e+00  -4.2494304e+00  -4.2438201e+00  -4.2703826e+00  -4.2474349e+00  -4.2553761e+00  -4.2950562e+00  -4.2579044e+00  -4.3303928e+00  -4.3151562e+00  -4.2743744e+00  -4.2647912e+00  -4.2595219e+00  -4.2228494e+00  -4.2717254e+00  -4.2847535e+00  -4.2574225e+00  -4.2794980e+00  -4.3003921e+00  -4.2762425e+00  -4.2881003e+00  -4.2714075e+00  -4.2576108e+00  -4.2726776e+00  -4.2672062e+00  -4.2319441e+00  -4.2048609e+00  -4.1846378e+00  -4.1526774e+00  -4.1755504e+00  -4.1661151e+00  -4.1997555e+00  -4.1996030e+00  -4.1956334e+00  -4.2184606e+00  -4.2202739e+00  -4.2116320e+00  -4.2478977e+00  -4.2409555e+00  -4.1652566e+00  -4.1987831e+00  -4.1961923e+00  -4.2011990e+00  -4.1755013e+00  -4.1693628e+00  -4.1534008e+00  -4.1309859e+00  -4.1440889e+00  -4.1578586e+00  -4.1606682e+00  -4.1548048e+00  -4.1283268e+00  -4.1481650e+00  -4.1838424e+00  -4.1624491e+00  -4.1879182e+00  -4.1940561e+00
