9.3036442e+00   9.3676468e+00   9.4022728e+00   9.3387032e+00   9.2903190e+00   9.2781227e+00   9.3065786e+00   9.3930979e+00   9.4276757e+00   9.4300390e+00   9.4838957e+00   9.6295212e+00   9.6412523e+00   9.6096109e+00   9.6169716e+00   9.4084652e+00   9.2870727e+00   9.2696667e+00   9.2896315e+00   9.2644779e+00   9.3137728e+00   9.3661393e+00   9.3747273e+00   9.3506354e+00   9.2476853e+00   9.0996390e+00   8.9664062e+00   8.6477627e+00   8.3898396e+00   7.7186987e+00   7.1809535e+00   6.7912145e+00   6.7575680e+00   6.8009662e+00   6.7863716e+00   6.7581621e+00   6.7196863e+00   6.8959416e+00   7.2316037e+00   7.5436330e+00   7.4493558e+00   7.3237685e+00   7.2445863e+00   7.2916209e+00   7.1559902e+00   7.0317997e+00   6.9278198e+00   7.5904319e+00   7.7046448e+00   7.1997741e+00   7.1967741e+00   6.9926392e+00   7.0401705e+00   6.6891013e+00   6.5759882e+00   6.5094537e+00   6.3765261e+00   6.4898582e+00   6.3701930e+00   6.2340860e+00   6.2772201e+00   6.6984023e+00   6.2855969e+00   6.2208706e+00   6.2099979e+00   6.1745074e+00   6.1660725e+00   6.1422154e+00   6.1961193e+00   6.2111239e+00   6.4832302e+00   6.7071015e+00   6.7387583e+00   6.7291331e+00   6.6100382e+00   6.3972108e+00   6.4885881e+00   6.5142483e+00   6.1055427e+00   5.9104687e+00   6.1268298e+00   6.1710770e+00   5.9464375e+00   5.5668124e+00   5.8193762e+00   6.1125987e+00   6.1596370e+00   5.9427940e+00   5.2576800e+00   5.7339435e+00   5.6602398e+00   5.9373283e+00   5.9862266e+00   5.4852895e+00   5.4003710e+00   5.3701327e+00   5.4688567e+00   5.3258455e+00   5.3842802e+00   4.7045235e+00   4.5362746e+00   4.4093804e+00   4.2714913e+00   4.1080551e+00   3.9969634e+00   3.9196868e+00   3.8104892e+00   3.7593593e+00   3.6986101e+00   3.6268272e+00   3.5953501e+00   3.5580713e+00   3.5110603e+00   3.4623618e+00   3.4453958e+00   3.3935895e+00   3.3371482e+00   3.3056511e+00   3.2512767e+00   3.2152226e+00   3.1693991e+00   3.1634653e+00   3.1097907e+00   3.0604871e+00   3.0051800e+00   2.9382863e+00   2.9142300e+00   2.8595360e+00   2.8223120e+00   2.8146918e+00   2.7363605e+00   2.7455280e+00   2.6920246e+00   2.6724308e+00   2.6565114e+00   2.6341457e+00   2.6116420e+00   2.6000720e+00   2.5880550e+00   2.5862873e+00   2.5711068e+00   2.5782672e+00   2.5933832e+00   2.5844814e+00   2.5818403e+00   2.5993436e+00   2.5828773e+00   2.6142345e+00   2.6097484e+00   2.6057869e+00   2.6069481e+00   2.6124868e+00   2.5829228e+00   2.5959557e+00   2.5801913e+00   2.5177797e+00   2.5579188e+00   2.5644811e+00   2.5272011e+00   2.5240441e+00   2.4918980e+00   2.4844185e+00   2.4981126e+00   2.4954650e+00   2.4649074e+00   2.5095867e+00   2.4442404e+00   2.4398106e+00   2.4731053e+00   2.4595077e+00   2.4261315e+00   2.3417064e+00   2.2581790e+00   2.3554700e+00   2.2527025e+00   2.1855453e+00   1.9976630e+00   1.8647015e+00   1.8897594e+00   1.7759790e+00   1.7745184e+00   1.7189595e+00   1.7605222e+00   1.7506547e+00   1.7268634e+00   1.7686188e+00
9.2955292e+00   9.3835726e+00   9.3839811e+00   9.3399554e+00   9.2906464e+00   9.3092730e+00   9.3713052e+00   9.5455926e+00   9.5649273e+00   9.5929707e+00   9.6081536e+00   9.6946174e+00   9.6547203e+00   9.5744415e+00   9.5923201e+00   9.3700664e+00   9.3487452e+00   9.2238232e+00   9.3939581e+00   9.4249303e+00   9.3520642e+00   9.3985861e+00   9.4060784e+00   9.3733998e+00   9.2982861e+00   9.0928075e+00   8.9938072e+00   8.5941884e+00   8.3439307e+00   7.7847532e+00   7.2044317e+00   6.8240700e+00   6.7404861e+00   6.7309057e+00   6.7315970e+00   6.7198753e+00   6.6619035e+00   6.8081797e+00   7.1084043e+00   7.3738158e+00   7.3709736e+00   7.2596252e+00   7.1685183e+00   7.1362510e+00   7.1372890e+00   7.0015807e+00   6.8120131e+00   7.8282540e+00   7.8217711e+00   7.5368602e+00   7.1731753e+00   6.7657103e+00   6.9235143e+00   6.4865808e+00   6.4549633e+00   6.4267995e+00   6.3667242e+00   6.5365762e+00   6.3857942e+00   6.2203478e+00   6.1708835e+00   6.2675160e+00   6.2356494e+00   6.1915592e+00   6.1746399e+00   6.1384398e+00   6.1301870e+00   6.1159283e+00   6.1739780e+00   6.0841297e+00   6.3314435e+00   6.4036014e+00   6.3098317e+00   6.5264081e+00   6.5351941e+00   6.3617082e+00   6.1860507e+00   6.1431896e+00   5.7981836e+00   5.7818756e+00   5.9694087e+00   6.1984669e+00   5.8912373e+00   5.9384134e+00   6.1668668e+00   6.5166491e+00   6.6319210e+00   6.3428584e+00   6.0662503e+00   5.6349391e+00   5.7936472e+00   6.0766865e+00   6.2838620e+00   5.3943326e+00   5.1660938e+00   4.9454173e+00   4.9007063e+00   4.7731927e+00   4.6007657e+00   4.4923361e+00   4.3852889e+00   4.2539706e+00   4.1282233e+00   4.0047034e+00   3.9063219e+00   3.8047659e+00   3.7433713e+00   3.7098783e+00   3.6483634e+00   3.5499669e+00   3.5649853e+00   3.5214851e+00   3.4287987e+00   3.4055300e+00   3.3636106e+00   3.3230575e+00   3.2969137e+00   3.2401987e+00   3.1921886e+00   3.1522342e+00   3.1324720e+00   3.0638653e+00   3.0484567e+00   2.9753227e+00   2.9669635e+00   2.9061423e+00   2.8662039e+00   2.8394964e+00   2.7760461e+00   2.7589824e+00   2.6927686e+00   2.6733900e+00   2.6507761e+00   2.6053847e+00   2.6025361e+00   2.6041000e+00   2.5782056e+00   2.5751523e+00   2.5765515e+00   2.5679146e+00   2.5661455e+00   2.5664634e+00   2.5759530e+00   2.5691038e+00   2.5852826e+00   2.6033584e+00   2.5988926e+00   2.6100094e+00   2.6119861e+00   2.5932721e+00   2.6198194e+00   2.6144606e+00   2.5904067e+00   2.6250095e+00   2.5091650e+00   2.5768334e+00   2.5605681e+00   2.5492052e+00   2.5260574e+00   2.5175681e+00   2.5050057e+00   2.4889008e+00   2.4826647e+00   2.4829108e+00   2.4427863e+00   2.4821969e+00   2.4945606e+00   2.4832247e+00   2.4838208e+00   2.4807357e+00   2.4010437e+00   2.2586621e+00   2.1774607e+00   2.1822467e+00   2.0268924e+00   1.9855841e+00   1.8800188e+00   1.8078570e+00   1.7892768e+00   1.7943584e+00   1.7036707e+00   1.7756210e+00   1.7782867e+00   1.7234580e+00   1.7466557e+00   1.7533750e+00
9.2733890e+00   9.4206076e+00   9.3883187e+00   9.3586714e+00   9.3009392e+00   9.3837566e+00   9.4209239e+00   9.5859773e+00   9.6672085e+00   9.7398486e+00   9.7116118e+00   9.7114032e+00   9.6468423e+00   9.5993977e+00   9.5750610e+00   9.4179894e+00   9.3784919e+00   9.2611402e+00   9.5480649e+00   9.6211398e+00   9.3958692e+00   9.4891054e+00   9.4953729e+00   9.4145255e+00   9.3435652e+00   9.1458504e+00   8.9519599e+00   8.5930603e+00   8.3389976e+00   7.8220788e+00   7.2245143e+00   6.8220273e+00   6.7053269e+00   6.6816980e+00   6.6954865e+00   6.6830565e+00   6.6529525e+00   6.7021972e+00   7.1263725e+00   7.3605548e+00   7.3216351e+00   7.2171111e+00   7.1213763e+00   7.0242748e+00   7.0557375e+00   6.9338379e+00   6.7987614e+00   7.7139994e+00   7.8168293e+00   7.5495683e+00   7.0230038e+00   6.6800826e+00   6.6329912e+00   6.4724662e+00   6.3553985e+00   6.3720008e+00   6.3049899e+00   6.6197369e+00   6.3997380e+00   6.1360866e+00   6.1705753e+00   6.1302041e+00   6.2049235e+00   6.1297601e+00   6.1215593e+00   6.1109343e+00   6.0647222e+00   6.0916682e+00   6.1558238e+00   6.0027865e+00   6.1736172e+00   6.2057882e+00   6.1483523e+00   6.3809442e+00   6.3735829e+00   6.1418129e+00   5.8903537e+00   5.7247447e+00   5.5791142e+00   5.6828475e+00   5.8754768e+00   6.1676310e+00   6.0514053e+00   6.0969465e+00   6.3836713e+00   6.5903124e+00   6.8606996e+00   6.6598373e+00   6.6106722e+00   5.9684655e+00   5.9853079e+00   6.2767613e+00   6.4622434e+00   5.4864424e+00   5.0507778e+00   4.8891741e+00   4.6572833e+00   4.5158535e+00   4.4106482e+00   4.3059090e+00   4.1758362e+00   4.0792194e+00   4.0127161e+00   3.9404599e+00   3.8298434e+00   3.7302352e+00   3.6975913e+00   3.6156023e+00   3.5750065e+00   3.5296014e+00   3.5267220e+00   3.4446262e+00   3.3749962e+00   3.3415008e+00   3.3053038e+00   3.2750719e+00   3.2331416e+00   3.1799611e+00   3.1559341e+00   3.1171284e+00   3.0890662e+00   3.0377229e+00   2.9777152e+00   2.9539385e+00   2.8922565e+00   2.8805053e+00   2.8124042e+00   2.7776577e+00   2.7119098e+00   2.6770234e+00   2.6506128e+00   2.6239980e+00   2.5986551e+00   2.5858476e+00   2.5821200e+00   2.5843927e+00   2.5390437e+00   2.5611289e+00   2.5587346e+00   2.5538189e+00   2.5507886e+00   2.5588722e+00   2.5720231e+00   2.5784631e+00   2.5968756e+00   2.6004786e+00   2.5921180e+00   2.6196499e+00   2.6244484e+00   2.6070705e+00   2.6140499e+00   2.6217255e+00   2.6075587e+00   2.6204387e+00   2.6265920e+00   2.6364850e+00   2.5591172e+00   2.5666166e+00   2.5340928e+00   2.5258645e+00   2.5016609e+00   2.4972955e+00   2.4956756e+00   2.4952313e+00   2.4980353e+00   2.4770571e+00   2.5096260e+00   2.5084266e+00   2.4509453e+00   2.4452441e+00   2.2719962e+00   2.1836641e+00   2.0513393e+00   2.0067237e+00   1.8710885e+00   1.8403997e+00   1.8054765e+00   1.7621081e+00   1.7738838e+00   1.7481807e+00   1.7057105e+00   1.7619265e+00   1.7649539e+00   1.7508972e+00   1.7693156e+00   1.7636052e+00
9.2823706e+00   9.3895232e+00   9.4286341e+00   9.4335029e+00   9.4025566e+00   9.3606302e+00   9.4983374e+00   9.7222953e+00   9.7630143e+00   9.7590430e+00   9.7487922e+00   9.7088957e+00   9.6698229e+00   9.6045621e+00   9.4998131e+00   9.3865010e+00   9.3322505e+00   9.2180192e+00   9.4594076e+00   9.6104298e+00   9.5785149e+00   9.5983391e+00   9.5949853e+00   9.4983662e+00   9.3411380e+00   9.2242664e+00   9.0000400e+00   8.6650427e+00   8.4511148e+00   7.9289704e+00   7.2370412e+00   6.7946189e+00   6.6343425e+00   6.6616143e+00   6.6631009e+00   6.6503813e+00   6.6770360e+00   6.7407703e+00   7.1516028e+00   7.4045769e+00   7.2823017e+00   7.2331867e+00   7.1025487e+00   6.9644560e+00   6.9282422e+00   6.8293858e+00   6.7844114e+00   7.4986136e+00   7.7137285e+00   7.5217186e+00   6.8163783e+00   6.6668945e+00   6.4515628e+00   6.4166137e+00   6.3668811e+00   6.3141774e+00   6.2430205e+00   6.6750055e+00   6.3928999e+00   6.3440879e+00   6.2233838e+00   6.1170414e+00   6.1339812e+00   6.0922300e+00   6.0969822e+00   6.0951995e+00   6.0354097e+00   6.1095135e+00   6.1392968e+00   6.0065567e+00   6.0124616e+00   6.1136805e+00   5.9631951e+00   6.0721148e+00   6.0984643e+00   5.8730193e+00   5.6779844e+00   5.5650714e+00   5.5081173e+00   5.5803716e+00   5.7578959e+00   6.1035109e+00   6.0999001e+00   6.1120125e+00   6.4841556e+00   6.6192272e+00   6.7620244e+00   6.8821328e+00   6.8174797e+00   6.3054061e+00   6.0309625e+00   6.3173733e+00   6.3664949e+00   5.7132872e+00   4.9459991e+00   4.7930893e+00   4.5800737e+00   4.4193081e+00   4.2901342e+00   4.2349773e+00   4.0413765e+00   3.9676581e+00   3.8762358e+00   3.8572054e+00   3.7504955e+00   3.6792422e+00   3.6205854e+00   3.5639675e+00   3.5055298e+00   3.4570858e+00   3.4405396e+00   3.3713111e+00   3.3381097e+00   3.3045767e+00   3.2503866e+00   3.2237295e+00   3.1635055e+00   3.1499693e+00   3.1169640e+00   3.0730781e+00   3.0248189e+00   2.9704374e+00   2.9160893e+00   2.8853660e+00   2.8190827e+00   2.8125470e+00   2.7583351e+00   2.7237468e+00   2.6790776e+00   2.6348892e+00   2.6192362e+00   2.5643290e+00   2.5711339e+00   2.5573539e+00   2.5484133e+00   2.5532360e+00   2.5442537e+00   2.5399937e+00   2.5490755e+00   2.5442528e+00   2.5563576e+00   2.5698202e+00   2.5780473e+00   2.5843311e+00   2.6085498e+00   2.6082635e+00   2.6045566e+00   2.6329538e+00   2.6146201e+00   2.6230301e+00   2.6244299e+00   2.6288710e+00   2.6140488e+00   2.5999357e+00   2.6335277e+00   2.6133560e+00   2.5976371e+00   2.5728212e+00   2.5474799e+00   2.5474609e+00   2.5222166e+00   2.5188725e+00   2.5006662e+00   2.4927967e+00   2.5035375e+00   2.5280054e+00   2.4924937e+00   2.4610135e+00   2.3662956e+00   2.2692870e+00   2.1044100e+00   1.9938513e+00   1.9121980e+00   1.8727922e+00   1.8346888e+00   1.8191620e+00   1.7868246e+00   1.7438239e+00   1.7914894e+00   1.7855815e+00   1.7826077e+00   1.8088713e+00   1.7641916e+00   1.7704044e+00   1.7819980e+00   1.8009245e+00
9.2663402e+00   9.3510543e+00   9.4489293e+00   9.5507020e+00   9.5782168e+00   9.4969896e+00   9.5852930e+00   9.7870408e+00   9.8404867e+00   9.8251845e+00   9.8111629e+00   9.7509478e+00   9.6682062e+00   9.5448667e+00   9.2810846e+00   9.2868550e+00   9.2438813e+00   9.2753641e+00   9.3898865e+00   9.5611545e+00   9.6932113e+00   9.7189971e+00   9.7614613e+00   9.6429636e+00   9.4444018e+00   9.2305030e+00   8.9946279e+00   8.7509802e+00   8.6193207e+00   7.9875532e+00   7.2974026e+00   6.7843794e+00   6.6175827e+00   6.6310386e+00   6.6462851e+00   6.6094078e+00   6.6793804e+00   6.7788820e+00   7.0998328e+00   7.4000583e+00   7.2330538e+00   7.2083832e+00   7.0474487e+00   6.9302316e+00   6.8525546e+00   6.8051978e+00   6.7417715e+00   7.3699538e+00   7.5862502e+00   7.5076325e+00   6.7472988e+00   6.5356883e+00   6.4193801e+00   6.3440204e+00   6.3272564e+00   6.2155198e+00   6.1887839e+00   6.3670256e+00   6.3588173e+00   6.4522080e+00   6.2915493e+00   6.1176241e+00   6.0949233e+00   6.0896896e+00   6.0647357e+00   6.0521407e+00   6.0437138e+00   6.1159402e+00   6.1553399e+00   5.9063645e+00   5.9462986e+00   6.0092382e+00   5.5890585e+00   5.7166621e+00   5.8394136e+00   5.7151211e+00   5.5315701e+00   5.4660995e+00   5.4259801e+00   5.4638458e+00   5.5065450e+00   6.0804688e+00   6.1293188e+00   6.0443055e+00   5.9929450e+00   6.3844338e+00   6.4011257e+00   6.8101284e+00   6.7512703e+00   6.3995467e+00   6.0764656e+00   6.2104653e+00   6.2099917e+00   5.5115539e+00   4.8975582e+00   4.7309606e+00   4.5481331e+00   4.3356359e+00   4.1798612e+00   4.0861105e+00   3.9681365e+00   3.8741033e+00   3.7717348e+00   3.7132695e+00   3.6772442e+00   3.6019344e+00   3.5522214e+00   3.5359522e+00   3.4566771e+00   3.4099626e+00   3.3823060e+00   3.3253109e+00   3.2940868e+00   3.2407812e+00   3.2042814e+00   3.1903207e+00   3.1362369e+00   3.0908453e+00   3.0477524e+00   3.0260024e+00   2.9604867e+00   2.9329284e+00   2.8843694e+00   2.8298793e+00   2.7778150e+00   2.7396671e+00   2.7260550e+00   2.6654325e+00   2.6373328e+00   2.6029744e+00   2.5790484e+00   2.5348865e+00   2.5549676e+00   2.5471471e+00   2.5387123e+00   2.5161038e+00   2.5340536e+00   2.5184818e+00   2.5394179e+00   2.5406497e+00   2.5463915e+00   2.5699377e+00   2.5796199e+00   2.5862242e+00   2.5928301e+00   2.6379121e+00   2.6285491e+00   2.6364927e+00   2.6448489e+00   2.6295653e+00   2.6450367e+00   2.6344858e+00   2.6019560e+00   2.6298253e+00   2.5958213e+00   2.5697065e+00   2.5940866e+00   2.5666942e+00   2.5707007e+00   2.5750144e+00   2.5318529e+00   2.5112101e+00   2.5088293e+00   2.4535252e+00   2.4762232e+00   2.5314094e+00   2.3574956e+00   2.2694304e+00   2.1677594e+00   2.0734757e+00   1.9702432e+00   1.8657701e+00   1.8645573e+00   1.8348902e+00   1.8052918e+00   1.7915620e+00   1.7980283e+00   1.7165573e+00   1.7911950e+00   1.8186823e+00   1.8039438e+00   1.8064646e+00   1.7949129e+00   1.7746749e+00   1.7949290e+00   1.8027060e+00
9.2230591e+00   9.4217680e+00   9.4894585e+00   9.7067105e+00   9.7249396e+00   9.6496364e+00   9.7216628e+00   9.9089893e+00   9.9186854e+00   9.8789942e+00   9.8637966e+00   9.8181673e+00   9.6137878e+00   9.3677041e+00   9.2052978e+00   9.1739909e+00   9.2336608e+00   9.3835721e+00   9.4884007e+00   9.6612881e+00   9.8284959e+00   9.8304691e+00   9.9010098e+00   9.7881018e+00   9.5465232e+00   9.2390043e+00   9.0313223e+00   8.8366004e+00   8.6094832e+00   7.9510196e+00   7.2696707e+00   6.7562254e+00   6.6115305e+00   6.5880726e+00   6.5724127e+00   6.5651592e+00   6.6296488e+00   6.6905602e+00   6.9807868e+00   7.2405797e+00   7.1649446e+00   7.1757516e+00   6.9796601e+00   6.9246336e+00   6.7885052e+00   6.7749970e+00   6.6435780e+00   7.0699600e+00   7.3984823e+00   7.3210620e+00   6.9090667e+00   6.4464527e+00   6.4585589e+00   6.3540193e+00   6.2680259e+00   6.2197050e+00   6.1734796e+00   6.2844681e+00   6.3442665e+00   6.5209913e+00   6.3338578e+00   6.1173118e+00   6.0978717e+00   6.0646956e+00   6.0380146e+00   6.0343858e+00   6.0285689e+00   6.1374262e+00   6.1531829e+00   5.7249328e+00   5.9510066e+00   5.8064487e+00   5.3704240e+00   5.4961089e+00   5.6687889e+00   5.6516848e+00   5.4771191e+00   5.3537099e+00   5.3151821e+00   5.3564850e+00   5.6184932e+00   6.1428760e+00   6.0319889e+00   5.9541141e+00   5.8033395e+00   5.8440279e+00   6.2206908e+00   6.4858466e+00   6.6086562e+00   6.3961027e+00   6.2393322e+00   6.0257477e+00   5.9667750e+00   5.3477286e+00   4.7534426e+00   4.6301340e+00   4.4532909e+00   4.2832483e+00   4.1086170e+00   3.9767259e+00   3.8749401e+00   3.7801250e+00   3.7298701e+00   3.6875800e+00   3.6151930e+00   3.5550274e+00   3.5019614e+00   3.4468697e+00   3.4197404e+00   3.3647680e+00   3.3229885e+00   3.2878463e+00   3.2376270e+00   3.2008051e+00   3.1779604e+00   3.1329270e+00   3.1042925e+00   3.0464538e+00   2.9943453e+00   2.9484118e+00   2.9188869e+00   2.8462220e+00   2.8184780e+00   2.7803864e+00   2.7374017e+00   2.6839027e+00   2.6816488e+00   2.6205010e+00   2.5934779e+00   2.5626743e+00   2.5609191e+00   2.5312836e+00   2.5272873e+00   2.5393208e+00   2.5295526e+00   2.5178315e+00   2.5299024e+00   2.5222105e+00   2.5305076e+00   2.5523392e+00   2.5589260e+00   2.5668254e+00   2.5873994e+00   2.6058663e+00   2.6274174e+00   2.6428137e+00   2.6448939e+00   2.6470915e+00   2.6432636e+00   2.6414645e+00   2.6595249e+00   2.6364855e+00   2.5689678e+00   2.6681163e+00   2.5973543e+00   2.5760390e+00   2.6003177e+00   2.5877507e+00   2.5889174e+00   2.5888891e+00   2.5480114e+00   2.5264968e+00   2.5033434e+00   2.4638412e+00   2.4159188e+00   2.2956941e+00   2.1252782e+00   2.0980710e+00   1.9813403e+00   1.9384523e+00   1.8661532e+00   1.8319167e+00   1.8305990e+00   1.8121474e+00   1.8028528e+00   1.8208504e+00   1.7841039e+00   1.7689328e+00   1.7901902e+00   1.8124176e+00   1.8110065e+00   1.7994302e+00   1.7995385e+00   1.7804144e+00   1.7829161e+00   1.7999990e+00
9.2892370e+00   9.5816053e+00   9.6201648e+00   9.8285316e+00   9.8465037e+00   9.7559636e+00   9.8905195e+00   1.0032299e+01   9.9973707e+00   9.9414466e+00   9.8807206e+00   9.8433163e+00   9.6147584e+00   9.2475957e+00   9.0515941e+00   9.0813060e+00   9.2373545e+00   9.3853538e+00   9.5426374e+00   9.7751958e+00   9.9411664e+00   1.0022891e+01   1.0071067e+01   9.9177792e+00   9.6694795e+00   9.3487823e+00   9.0495386e+00   8.8701537e+00   8.6407379e+00   7.9116692e+00   7.1781762e+00   6.7210229e+00   6.5648310e+00   6.5317842e+00   6.5407673e+00   6.5223821e+00   6.5651518e+00   6.6137527e+00   6.8711100e+00   7.1192409e+00   7.0711398e+00   7.0879099e+00   6.9866647e+00   6.8730334e+00   6.7299303e+00   6.7423429e+00   6.6447792e+00   6.8011792e+00   7.2470374e+00   7.2323071e+00   6.9569682e+00   6.6246284e+00   6.5267358e+00   6.4418846e+00   6.2550636e+00   6.1792404e+00   6.1659026e+00   6.1454526e+00   6.2684471e+00   6.4356075e+00   6.3070377e+00   6.0986733e+00   6.0797286e+00   6.0372193e+00   6.0177458e+00   6.0287574e+00   6.0021870e+00   6.1311171e+00   6.2482563e+00   5.9903690e+00   5.7720858e+00   5.4520675e+00   5.2547440e+00   5.3722373e+00   5.6329678e+00   5.6155779e+00   5.3756814e+00   5.2532332e+00   5.1051453e+00   5.3580976e+00   5.7819175e+00   6.2103962e+00   5.9865554e+00   5.9172019e+00   5.6967216e+00   5.4182655e+00   5.7239874e+00   5.9726011e+00   6.0327106e+00   6.2362577e+00   6.0347881e+00   5.8595226e+00   5.6783133e+00   5.0373062e+00   4.6325663e+00   4.4983290e+00   4.3387526e+00   4.1917268e+00   4.0480877e+00   3.9298530e+00   3.8009489e+00   3.7332397e+00   3.6737738e+00   3.6101272e+00   3.5491126e+00   3.4859373e+00   3.4462092e+00   3.3906147e+00   3.3679389e+00   3.2987090e+00   3.2795726e+00   3.2419516e+00   3.2102118e+00   3.1735989e+00   3.1376219e+00   3.1073209e+00   3.0699334e+00   3.0076449e+00   2.9694155e+00   2.9127736e+00   2.8765199e+00   2.8191039e+00   2.7526626e+00   2.7142533e+00   2.6952131e+00   2.6482028e+00   2.6163131e+00   2.5729324e+00   2.5632265e+00   2.5432542e+00   2.5281529e+00   2.5315087e+00   2.5151136e+00   2.5301139e+00   2.5167671e+00   2.5140102e+00   2.5238538e+00   2.5332272e+00   2.5413748e+00   2.5536167e+00   2.5503901e+00   2.5567909e+00   2.5927413e+00   2.6316986e+00   2.6323347e+00   2.6421592e+00   2.6689129e+00   2.6664397e+00   2.6533761e+00   2.6443062e+00   2.6744693e+00   2.6551602e+00   2.6151065e+00   2.6274298e+00   2.6260444e+00   2.6095750e+00   2.6108638e+00   2.5753870e+00   2.5806877e+00   2.5832301e+00   2.5490424e+00   2.5346898e+00   2.4058015e+00   2.3480077e+00   2.2153548e+00   2.0365245e+00   1.9919484e+00   1.9416765e+00   1.8981769e+00   1.8634204e+00   1.8303050e+00   1.8039932e+00   1.8056538e+00   1.8347019e+00   1.8219829e+00   1.8101447e+00   1.7867598e+00   1.7768177e+00   1.8140146e+00   1.8104233e+00   1.8068694e+00   1.8130572e+00   1.7891585e+00   1.7857114e+00   1.7815905e+00   1.7928772e+00
9.6291196e+00   9.6606706e+00   9.8172658e+00   9.9950461e+00   9.9896347e+00   9.8644438e+00   1.0076102e+01   1.0109561e+01   1.0012273e+01   9.9780251e+00   9.9345565e+00   9.9065903e+00   9.7168337e+00   9.2051917e+00   9.0354737e+00   9.0465355e+00   9.1615575e+00   9.2885453e+00   9.4949567e+00   9.8481824e+00   9.9952198e+00   1.0169965e+01   1.0189531e+01   1.0026810e+01   9.7973087e+00   9.4230078e+00   9.0401325e+00   8.8589988e+00   8.4975865e+00   7.9825989e+00   7.1598051e+00   6.7104957e+00   6.5719876e+00   6.5006776e+00   6.5270506e+00   6.4970412e+00   6.5125863e+00   6.5459867e+00   6.7731954e+00   6.9492179e+00   7.0195696e+00   7.0093160e+00   6.9810806e+00   6.8386148e+00   6.6447189e+00   6.6942623e+00   6.6446124e+00   6.6387198e+00   7.1678115e+00   7.2874816e+00   7.0169497e+00   6.6891977e+00   6.5449505e+00   6.3641391e+00   6.2153911e+00   6.1319672e+00   6.1114961e+00   6.1260233e+00   6.2271618e+00   6.3158394e+00   6.1946523e+00   6.0576440e+00   6.0472291e+00   6.0308949e+00   6.0281611e+00   6.0187688e+00   6.0282410e+00   6.1269001e+00   6.3124110e+00   6.1058200e+00   5.5980579e+00   5.2483394e+00   5.1434759e+00   5.3001368e+00   5.4334934e+00   5.5165994e+00   5.2045681e+00   5.1119786e+00   4.9261549e+00   5.3785296e+00   5.8999823e+00   6.3133238e+00   5.9988745e+00   5.8686585e+00   5.7973010e+00   5.2924778e+00   5.4675403e+00   5.6563590e+00   5.8134413e+00   6.2016947e+00   5.8735466e+00   5.4443413e+00   5.1386118e+00   4.8551510e+00   4.5738409e+00   4.3848666e+00   4.2467898e+00   4.1344587e+00   3.9705418e+00   3.8574765e+00   3.7623809e+00   3.6756740e+00   3.6272621e+00   3.5158130e+00   3.4808797e+00   3.4378478e+00   3.3979225e+00   3.3291399e+00   3.2995930e+00   3.2775660e+00   3.2450270e+00   3.1979703e+00   3.1791938e+00   3.1661115e+00   3.0774910e+00   3.0666184e+00   3.0092220e+00   2.9563184e+00   2.9241775e+00   2.8696920e+00   2.8311267e+00   2.7923540e+00   2.7117711e+00   2.6514384e+00   2.6588318e+00   2.6200675e+00   2.5929176e+00   2.5556556e+00   2.5448711e+00   2.5270118e+00   2.5172146e+00   2.5227450e+00   2.5066021e+00   2.5300009e+00   2.5038943e+00   2.5142815e+00   2.5347724e+00   2.5561648e+00   2.5502133e+00   2.5568786e+00   2.5748945e+00   2.5657453e+00   2.6268670e+00   2.6301689e+00   2.6383191e+00   2.6496646e+00   2.6713304e+00   2.6782997e+00   2.6817982e+00   2.6675459e+00   2.6723495e+00   2.6764165e+00   2.6722969e+00   2.6300299e+00   2.6594544e+00   2.6089467e+00   2.6016906e+00   2.5879140e+00   2.5758986e+00   2.5670307e+00   2.5206297e+00   2.4377792e+00   2.2632939e+00   2.1254622e+00   2.0389252e+00   1.9927821e+00   1.9193941e+00   1.8518987e+00   1.8590537e+00   1.8134709e+00   1.8352066e+00   1.8225284e+00   1.8132149e+00   1.8308971e+00   1.8166588e+00   1.7863255e+00   1.8176703e+00   1.8157824e+00   1.8214359e+00   1.8016510e+00   1.7868322e+00   1.7906612e+00   1.7943951e+00   1.7910981e+00   1.7901552e+00   1.7797486e+00
9.9505382e+00   9.8753724e+00   9.9891942e+00   1.0148182e+01   1.0197696e+01   1.0141494e+01   1.0217039e+01   1.0162052e+01   1.0086481e+01   1.0015773e+01   1.0045363e+01   9.9074594e+00   9.4235702e+00   9.1060687e+00   9.0474287e+00   9.0343592e+00   9.0764428e+00   9.2030862e+00   9.3426037e+00   9.8801287e+00   1.0110600e+01   1.0271537e+01   1.0259061e+01   1.0110499e+01   9.9009402e+00   9.4638891e+00   9.1469312e+00   8.8559796e+00   8.5465755e+00   8.0245490e+00   7.1211640e+00   6.7045209e+00   6.5531491e+00   6.4626583e+00   6.4916031e+00   6.4507261e+00   6.4336448e+00   6.4751293e+00   6.6445155e+00   6.8353211e+00   6.9130915e+00   6.8774857e+00   6.8745663e+00   6.7797158e+00   6.5827261e+00   6.6529300e+00   6.6172434e+00   6.4771033e+00   7.0985040e+00   7.2691211e+00   7.1315575e+00   6.8395849e+00   6.4903488e+00   6.2503890e+00   6.1938329e+00   6.1210032e+00   6.0644808e+00   6.1001257e+00   6.1853065e+00   6.2811109e+00   6.0791794e+00   5.9903684e+00   6.0138888e+00   6.0170597e+00   6.0115784e+00   6.0039547e+00   6.0474106e+00   6.0929536e+00   6.2427223e+00   5.9365663e+00   5.4812455e+00   5.2284634e+00   5.1551103e+00   5.3731019e+00   5.5035708e+00   5.3072781e+00   5.1411433e+00   4.9784897e+00   4.8886237e+00   5.3470038e+00   6.0937124e+00   6.5788012e+00   6.1951906e+00   5.8244337e+00   5.6785642e+00   5.3327513e+00   5.5707988e+00   5.7460705e+00   5.8473620e+00   6.0354282e+00   5.7148947e+00   5.2339775e+00   4.8321616e+00   4.7160806e+00   4.4792790e+00   4.3158478e+00   4.1218270e+00   3.9885048e+00   3.8429175e+00   3.7662308e+00   3.7170924e+00   3.5974170e+00   3.5519367e+00   3.4482065e+00   3.4357896e+00   3.3739267e+00   3.3516422e+00   3.2712346e+00   3.2477957e+00   3.2269282e+00   3.1883701e+00   3.1486025e+00   3.1335561e+00   3.0950976e+00   3.0463989e+00   3.0060412e+00   2.9616605e+00   2.9339914e+00   2.8728743e+00   2.8298382e+00   2.7871474e+00   2.7384574e+00   2.6727979e+00   2.6364641e+00   2.6155135e+00   2.5907453e+00   2.5526008e+00   2.5491927e+00   2.5222402e+00   2.5040095e+00   2.4891090e+00   2.4984464e+00   2.5089810e+00   2.5135415e+00   2.5099091e+00   2.5353678e+00   2.5328175e+00   2.5658461e+00   2.5683182e+00   2.5740435e+00   2.5886798e+00   2.5982813e+00   2.6281656e+00   2.6343038e+00   2.6399989e+00   2.6763524e+00   2.6861600e+00   2.6935978e+00   2.7096243e+00   2.6650083e+00   2.6851305e+00   2.6839529e+00   2.6734561e+00   2.6357220e+00   2.6388174e+00   2.6256749e+00   2.6162586e+00   2.5863038e+00   2.5354378e+00   2.5162408e+00   2.3514124e+00   2.1726033e+00   2.0826558e+00   1.9593821e+00   1.9378134e+00   1.9108614e+00   1.8726238e+00   1.8405925e+00   1.8432998e+00   1.8389164e+00   1.8356532e+00   1.8412449e+00   1.8160622e+00   1.8214098e+00   1.8077319e+00   1.7856995e+00   1.8097749e+00   1.7955209e+00   1.8213345e+00   1.7551719e+00   1.7771263e+00   1.7817721e+00   1.7923710e+00   1.7784366e+00   1.7734538e+00   1.7879510e+00
9.9803283e+00   1.0091596e+01   1.0155088e+01   1.0292932e+01   1.0368218e+01   1.0343614e+01   1.0300911e+01   1.0185887e+01   1.0155426e+01   1.0044659e+01   1.0022388e+01   9.7372884e+00   9.2644946e+00   9.0817681e+00   9.0333283e+00   9.0412479e+00   8.9946676e+00   9.1208251e+00   9.5154801e+00   9.8435086e+00   1.0113865e+01   1.0361165e+01   1.0313309e+01   1.0242771e+01   9.8739902e+00   9.5791705e+00   9.1757395e+00   8.8767294e+00   8.5289188e+00   7.9690702e+00   7.1717971e+00   6.7323173e+00   6.5528832e+00   6.4238638e+00   6.4443273e+00   6.4043173e+00   6.3756618e+00   6.3729617e+00   6.4651471e+00   6.7599346e+00   6.8178838e+00   6.7834288e+00   6.7219907e+00   6.6368228e+00   6.5397933e+00   6.5651403e+00   6.6013274e+00   6.4680423e+00   7.0733285e+00   6.9668781e+00   7.0000100e+00   6.8112076e+00   6.3455580e+00   6.1918868e+00   6.1967053e+00   6.1270653e+00   6.0493268e+00   6.3344899e+00   6.2165587e+00   6.2878744e+00   6.0305216e+00   5.9800464e+00   5.9771907e+00   6.0013342e+00   5.9785029e+00   5.9807139e+00   6.0523485e+00   6.0671464e+00   6.0562218e+00   5.8153080e+00   5.4028069e+00   5.3570844e+00   5.2270620e+00   5.5519320e+00   5.5422734e+00   5.0844062e+00   5.1069718e+00   4.8207874e+00   4.7872427e+00   5.3526711e+00   6.2187003e+00   6.8553676e+00   6.3083869e+00   5.7766585e+00   5.5930030e+00   5.4405710e+00   5.7237522e+00   5.8225555e+00   5.7591278e+00   5.8030893e+00   5.7330580e+00   5.0716724e+00   4.7318191e+00   4.5239695e+00   4.3713995e+00   4.1823802e+00   4.0296436e+00   3.9093385e+00   3.7718784e+00   3.7315152e+00   3.6320666e+00   3.5881239e+00   3.4908497e+00   3.4140588e+00   3.4046900e+00   3.3376916e+00   3.2948010e+00   3.2496544e+00   3.2162575e+00   3.1787785e+00   3.1580662e+00   3.1222855e+00   3.0837156e+00   3.0521701e+00   3.0213195e+00   2.9635223e+00   2.9269624e+00   2.8724413e+00   2.8040530e+00   2.7810751e+00   2.7402196e+00   2.6850857e+00   2.6463464e+00   2.6298620e+00   2.5887602e+00   2.5567625e+00   2.5393870e+00   2.5359317e+00   2.5155426e+00   2.4845996e+00   2.4949080e+00   2.4828438e+00   2.5001967e+00   2.4972439e+00   2.5193241e+00   2.5401879e+00   2.5578015e+00   2.5517632e+00   2.5795747e+00   2.5799957e+00   2.6042472e+00   2.6081246e+00   2.6383038e+00   2.6471366e+00   2.6527016e+00   2.6711464e+00   2.6768994e+00   2.6917283e+00   2.7144885e+00   2.6737558e+00   2.7247143e+00   2.7088323e+00   2.6980594e+00   2.6545923e+00   2.6495439e+00   2.6245666e+00   2.6037546e+00   2.5532091e+00   2.4433928e+00   2.2980568e+00   2.1227110e+00   1.9654674e+00   1.9616635e+00   1.8945182e+00   1.8750058e+00   1.8627703e+00   1.8473143e+00   1.8575292e+00   1.8466222e+00   1.8154480e+00   1.8622473e+00   1.8460608e+00   1.8079666e+00   1.7897488e+00   1.8085616e+00   1.7774623e+00   1.8030557e+00   1.7558756e+00   1.7653570e+00   1.7049646e+00   1.7911623e+00   1.7879258e+00   1.7835162e+00   1.7781913e+00   1.7729057e+00   1.8039499e+00
1.0019389e+01   1.0124189e+01   1.0313845e+01   1.0436222e+01   1.0503658e+01   1.0442626e+01   1.0375303e+01   1.0255602e+01   1.0197880e+01   1.0144502e+01   9.9141490e+00   9.5475473e+00   9.3110052e+00   9.0929307e+00   9.0123274e+00   9.0165650e+00   8.9603619e+00   9.0658489e+00   9.3647287e+00   9.8094770e+00   1.0188779e+01   1.0408704e+01   1.0395758e+01   1.0302258e+01   1.0085658e+01   9.6582565e+00   9.1863050e+00   8.7985689e+00   8.3753173e+00   7.8999700e+00   7.2101463e+00   6.7790777e+00   6.5210751e+00   6.3916084e+00   6.4029287e+00   6.3656508e+00   6.3401339e+00   6.3086668e+00   6.3644277e+00   6.6609670e+00   6.8120006e+00   6.6748795e+00   6.6180903e+00   6.5992080e+00   6.5155897e+00   6.5147325e+00   6.5705481e+00   6.4424839e+00   6.8288723e+00   6.8904113e+00   6.7049474e+00   6.6192622e+00   6.2323867e+00   6.2400941e+00   6.1829888e+00   6.1051790e+00   6.0252139e+00   6.4187935e+00   6.4462044e+00   6.1793055e+00   5.9635977e+00   5.9698283e+00   5.9589609e+00   5.9614637e+00   5.9636329e+00   5.9657129e+00   6.0453565e+00   5.9852651e+00   5.9683018e+00   5.6752271e+00   5.3832008e+00   5.4280734e+00   5.2807817e+00   5.5346256e+00   5.5713365e+00   5.0580344e+00   4.9017105e+00   4.7153845e+00   4.6975228e+00   5.3342460e+00   6.4363782e+00   6.8491323e+00   6.2734811e+00   5.7288086e+00   5.5037597e+00   5.4469111e+00   5.7605307e+00   5.8359297e+00   5.6743216e+00   5.7314515e+00   5.7332127e+00   4.9659293e+00   4.5886392e+00   4.3290783e+00   4.2182433e+00   4.0755795e+00   3.9461221e+00   3.8289097e+00   3.7149222e+00   3.6414473e+00   3.5713281e+00   3.5152060e+00   3.4323197e+00   3.3931275e+00   3.3451572e+00   3.3030586e+00   3.2320553e+00   3.1865523e+00   3.1819808e+00   3.1474561e+00   3.1215765e+00   3.0609746e+00   3.0382523e+00   3.0105023e+00   2.9770637e+00   2.9209834e+00   2.8723326e+00   2.8275977e+00   2.7819781e+00   2.7383452e+00   2.6923990e+00   2.6449045e+00   2.6165478e+00   2.5942358e+00   2.5586488e+00   2.5311005e+00   2.5111901e+00   2.5170188e+00   2.5100659e+00   2.4910148e+00   2.4932405e+00   2.4766811e+00   2.5016814e+00   2.5023068e+00   2.5230207e+00   2.5356366e+00   2.5652005e+00   2.5645734e+00   2.5955304e+00   2.5896387e+00   2.6168692e+00   2.6100011e+00   2.6463178e+00   2.6640392e+00   2.6453180e+00   2.6686895e+00   2.6906021e+00   2.7002651e+00   2.7066224e+00   2.6927000e+00   2.7236461e+00   2.7166665e+00   2.7296042e+00   2.7310317e+00   2.6520911e+00   2.6146126e+00   2.5470102e+00   2.5056638e+00   2.2278332e+00   2.0912033e+00   1.9861604e+00   1.8995582e+00   1.8793438e+00   1.8498147e+00   1.8518153e+00   1.8561020e+00   1.8395570e+00   1.8634512e+00   1.8461778e+00   1.8701001e+00   1.8704311e+00   1.8419380e+00   1.8152902e+00   1.7860692e+00   1.8012859e+00   1.7694930e+00   1.7959812e+00   1.7761606e+00   1.7240889e+00   1.6847514e+00   1.6830465e+00   1.7617407e+00   1.7948700e+00   1.7857613e+00   1.7803263e+00   1.7898048e+00
1.0104383e+01   1.0266952e+01   1.0472191e+01   1.0586559e+01   1.0602179e+01   1.0518141e+01   1.0428532e+01   1.0331346e+01   1.0268167e+01   9.9664838e+00   9.5494623e+00   9.3435263e+00   9.2284666e+00   9.1150305e+00   9.0625339e+00   8.9970988e+00   8.9220080e+00   9.0318553e+00   9.2604271e+00   9.7635024e+00   1.0113705e+01   1.0416652e+01   1.0415502e+01   1.0323886e+01   1.0121040e+01   9.6467360e+00   9.1829415e+00   8.5075089e+00   8.2401918e+00   7.8680401e+00   7.1781910e+00   6.7821036e+00   6.4765212e+00   6.3506695e+00   6.3676902e+00   6.3496202e+00   6.3125149e+00   6.2423706e+00   6.3067128e+00   6.4777521e+00   6.7011074e+00   6.5606516e+00   6.4937431e+00   6.5441389e+00   6.4753344e+00   6.5193835e+00   6.5173715e+00   6.4278700e+00   6.4970859e+00   6.5938934e+00   6.3639194e+00   6.3370535e+00   6.2629446e+00   6.2333525e+00   6.1471693e+00   6.0682361e+00   5.9285336e+00   6.3992750e+00   6.6322559e+00   6.0887445e+00   5.9302966e+00   5.9567677e+00   5.9648422e+00   5.9525937e+00   5.9588101e+00   5.9534837e+00   5.8991015e+00   5.9225239e+00   5.9211408e+00   5.5534787e+00   5.3298157e+00   5.3447001e+00   5.2167376e+00   5.2182079e+00   5.5594301e+00   5.0086298e+00   4.7896608e+00   4.7133120e+00   4.6638232e+00   5.1118476e+00   6.1988047e+00   6.4828962e+00   6.2334796e+00   5.7445296e+00   5.3918330e+00   5.5652210e+00   5.6858730e+00   5.7174699e+00   5.6038969e+00   5.6011272e+00   5.4656341e+00   4.8014077e+00   4.4163228e+00   4.2360494e+00   4.1005150e+00   3.9748429e+00   3.8468607e+00   3.7683237e+00   3.6591432e+00   3.5862986e+00   3.5284191e+00   3.4348942e+00   3.3909057e+00   3.3494002e+00   3.2885477e+00   3.2215506e+00   3.1913015e+00   3.1665465e+00   3.1279281e+00   3.1015281e+00   3.0725956e+00   3.0182926e+00   3.0007864e+00   2.9728646e+00   2.9256414e+00   2.8847873e+00   2.8355414e+00   2.7940566e+00   2.7488603e+00   2.6984273e+00   2.6753274e+00   2.6269739e+00   2.5978587e+00   2.5676134e+00   2.5556982e+00   2.5116934e+00   2.5194077e+00   2.5132421e+00   2.5085421e+00   2.4954059e+00   2.5088146e+00   2.4892113e+00   2.4956842e+00   2.5095963e+00   2.5227059e+00   2.5611018e+00   2.5776962e+00   2.5850360e+00   2.6100214e+00   2.6257244e+00   2.6350350e+00   2.6161211e+00   2.6437609e+00   2.6790225e+00   2.6694120e+00   2.6896069e+00   2.6954596e+00   2.7075833e+00   2.6908125e+00   2.6977200e+00   2.7227267e+00   2.6865822e+00   2.6835814e+00   2.6761343e+00   2.5897810e+00   2.5118893e+00   2.3516932e+00   2.2187564e+00   2.0454590e+00   1.9655419e+00   1.9089430e+00   1.8480457e+00   1.8471536e+00   1.8496607e+00   1.8490517e+00   1.8506143e+00   1.8369658e+00   1.8375477e+00   1.8569334e+00   1.8789714e+00   1.8696922e+00   1.8250259e+00   1.8149457e+00   1.7993293e+00   1.7350451e+00   1.7974882e+00   1.7755898e+00   1.7232349e+00   1.7083730e+00   1.6839289e+00   1.6988220e+00   1.7328096e+00   1.7796701e+00   1.7835388e+00   1.7632221e+00   1.7515317e+00
1.0070206e+01   1.0452886e+01   1.0651551e+01   1.0743885e+01   1.0694346e+01   1.0611413e+01   1.0511601e+01   1.0411199e+01   1.0303439e+01   9.7582290e+00   9.3728367e+00   9.2456527e+00   9.1684044e+00   9.1720630e+00   9.0422999e+00   9.0260323e+00   8.9019781e+00   9.0149681e+00   9.2864280e+00   9.6799329e+00   1.0078206e+01   1.0392518e+01   1.0438514e+01   1.0362408e+01   1.0085415e+01   9.6178161e+00   9.1095697e+00   8.4838233e+00   8.0195301e+00   7.5797748e+00   7.0817068e+00   6.8852337e+00   6.5206374e+00   6.3739726e+00   6.3392962e+00   6.3074911e+00   6.2652872e+00   6.2229033e+00   6.2698134e+00   6.4160496e+00   6.5166386e+00   6.4203950e+00   6.3950755e+00   6.4267700e+00   6.4528058e+00   6.4845934e+00   6.4698032e+00   6.4078564e+00   6.3636450e+00   6.2906455e+00   6.1715536e+00   6.2072943e+00   6.2634251e+00   6.1743183e+00   6.1020671e+00   6.0857744e+00   5.9344176e+00   6.2509205e+00   6.4429026e+00   5.9312579e+00   5.9228566e+00   5.9328355e+00   5.9307017e+00   5.9433928e+00   5.9576281e+00   5.9568239e+00   5.7030234e+00   5.6710347e+00   5.8378313e+00   5.5349623e+00   5.2734666e+00   5.1775374e+00   5.0283583e+00   4.8985209e+00   5.3156814e+00   4.9434511e+00   4.8323711e+00   4.7633049e+00   4.7425352e+00   4.9022515e+00   5.4892291e+00   6.0775402e+00   6.0577207e+00   5.6904372e+00   5.2792161e+00   5.5974449e+00   5.6313584e+00   5.5826948e+00   5.4596159e+00   5.4347426e+00   5.3332138e+00   4.4968613e+00   4.2998147e+00   4.1640806e+00   3.9760160e+00   3.8504776e+00   3.7443020e+00   3.6775703e+00   3.6016391e+00   3.5317364e+00   3.4678631e+00   3.4189633e+00   3.3440667e+00   3.3005199e+00   3.2407436e+00   3.1859944e+00   3.1644837e+00   3.1468066e+00   3.0819457e+00   3.0717245e+00   3.0445777e+00   2.9932942e+00   2.9792584e+00   2.9419759e+00   2.8792712e+00   2.8413236e+00   2.7977974e+00   2.7490276e+00   2.7265523e+00   2.6743958e+00   2.6204575e+00   2.6114352e+00   2.5845681e+00   2.5533200e+00   2.5457803e+00   2.5106206e+00   2.5151423e+00   2.5128699e+00   2.5045500e+00   2.4992992e+00   2.5029977e+00   2.5158437e+00   2.5349275e+00   2.5226334e+00   2.5467902e+00   2.5995673e+00   2.6165357e+00   2.6104884e+00   2.6225733e+00   2.6397546e+00   2.6334328e+00   2.6332784e+00   2.6657159e+00   2.6819753e+00   2.6837858e+00   2.6938405e+00   2.6914981e+00   2.7178454e+00   2.6905784e+00   2.6732970e+00   2.6980012e+00   2.4979339e+00   2.5210786e+00   2.5534800e+00   2.4086615e+00   2.2988898e+00   2.1152605e+00   2.0503108e+00   1.9728565e+00   1.9338075e+00   1.8779911e+00   1.8466461e+00   1.8583923e+00   1.8356308e+00   1.8506642e+00   1.8477133e+00   1.8525480e+00   1.8398907e+00   1.8492083e+00   1.8111260e+00   1.8506849e+00   1.7904429e+00   1.7973695e+00   1.7788589e+00   1.8139787e+00   1.7894042e+00   1.7147131e+00   1.7221736e+00   1.7484020e+00   1.7349438e+00   1.6698754e+00   1.7347224e+00   1.7642115e+00   1.7800010e+00   1.7741082e+00   1.7509619e+00
1.0398439e+01   1.0649902e+01   1.0828648e+01   1.0919079e+01   1.0783104e+01   1.0662548e+01   1.0569757e+01   1.0466759e+01   1.0062601e+01   9.5832023e+00   9.2537337e+00   9.2394630e+00   9.1312891e+00   9.1974479e+00   9.1337659e+00   9.0147810e+00   8.9198111e+00   9.0212870e+00   9.2647785e+00   9.6551162e+00   1.0050724e+01   1.0331002e+01   1.0455134e+01   1.0370686e+01   1.0165247e+01   9.5649324e+00   8.9304003e+00   8.4392112e+00   7.8958147e+00   7.5658048e+00   7.0888366e+00   6.8477168e+00   6.5885307e+00   6.2803470e+00   6.2990479e+00   6.2770078e+00   6.2168818e+00   6.1749503e+00   6.2373058e+00   6.3221952e+00   6.3813625e+00   6.3589445e+00   6.3455262e+00   6.3826681e+00   6.4379903e+00   6.5015491e+00   6.4118294e+00   6.3629365e+00   6.3515122e+00   6.2011594e+00   6.1814144e+00   6.1544318e+00   6.1849095e+00   6.1481157e+00   6.0827540e+00   6.0401052e+00   5.9249118e+00   6.1031567e+00   6.1205965e+00   5.8821160e+00   5.8900021e+00   5.8953491e+00   5.8944454e+00   5.9413222e+00   5.9318034e+00   5.9930025e+00   5.2326749e+00   5.2194992e+00   5.7277935e+00   5.4894293e+00   5.3025871e+00   5.0575132e+00   4.9852985e+00   4.9167611e+00   4.9596953e+00   5.0005238e+00   4.9492764e+00   4.8306875e+00   4.8344365e+00   4.8586612e+00   5.2457463e+00   5.6255042e+00   5.6392362e+00   5.7329214e+00   5.1873621e+00   5.3807293e+00   5.4678106e+00   5.4102435e+00   5.2911216e+00   5.3409323e+00   5.0672781e+00   4.3413242e+00   4.1211765e+00   4.0103382e+00   3.8786685e+00   3.7960542e+00   3.6866818e+00   3.6264152e+00   3.5351915e+00   3.4480147e+00   3.4067093e+00   3.3659023e+00   3.2910336e+00   3.2372923e+00   3.2016127e+00   3.1540332e+00   3.1295947e+00   3.0896450e+00   3.0668150e+00   3.0443684e+00   2.9950480e+00   2.9536954e+00   2.9485365e+00   2.9103754e+00   2.8585241e+00   2.8230981e+00   2.7635018e+00   2.7106271e+00   2.6996112e+00   2.6452632e+00   2.6072925e+00   2.5971352e+00   2.5587134e+00   2.5351386e+00   2.5293714e+00   2.5084524e+00   2.5058445e+00   2.5144564e+00   2.5186489e+00   2.5068880e+00   2.5315057e+00   2.5323387e+00   2.5516894e+00   2.5497795e+00   2.5655354e+00   2.6006512e+00   2.6147005e+00   2.6346102e+00   2.6210643e+00   2.6695256e+00   2.6558735e+00   2.6585035e+00   2.6657480e+00   2.6899828e+00   2.6902852e+00   2.7040572e+00   2.6942826e+00   2.7010080e+00   2.6515234e+00   2.5998050e+00   2.6120460e+00   2.4490035e+00   2.3458002e+00   2.3177336e+00   2.1691733e+00   2.0313057e+00   1.9715423e+00   1.9381440e+00   1.9024284e+00   1.8722708e+00   1.8703424e+00   1.8473801e+00   1.8512713e+00   1.8376163e+00   1.8422975e+00   1.8494518e+00   1.8387656e+00   1.8405802e+00   1.8395727e+00   1.8031548e+00   1.8445268e+00   1.7944619e+00   1.7864444e+00   1.7167244e+00   1.7659306e+00   1.7372041e+00   1.7486955e+00   1.7477758e+00   1.7612829e+00   1.7622429e+00   1.7006202e+00   1.7471323e+00   1.7306641e+00   1.7437235e+00   1.7934427e+00   1.7741484e+00
1.0677531e+01   1.0861263e+01   1.1014852e+01   1.1005084e+01   1.0851385e+01   1.0731266e+01   1.0645590e+01   1.0389245e+01   1.0018954e+01   9.6394839e+00   9.4344867e+00   9.3336651e+00   9.1409560e+00   9.1803193e+00   9.1372504e+00   9.0148359e+00   8.9313387e+00   9.0504639e+00   9.3132314e+00   9.6875044e+00   9.9818003e+00   1.0279816e+01   1.0415191e+01   1.0365445e+01   1.0219899e+01   9.3687601e+00   8.7900704e+00   8.2665462e+00   7.7010307e+00   7.3801133e+00   6.9900725e+00   6.8074810e+00   6.6073714e+00   6.3318587e+00   6.2370362e+00   6.2435108e+00   6.2100244e+00   6.3216817e+00   6.1715113e+00   6.2421905e+00   6.2789621e+00   6.2891931e+00   6.2931485e+00   6.3325073e+00   6.4022590e+00   6.4153425e+00   6.3305557e+00   6.3064842e+00   6.2559633e+00   6.1865366e+00   6.1604954e+00   6.1029552e+00   6.1254256e+00   6.1089999e+00   6.0568306e+00   5.9773434e+00   5.8999536e+00   5.9232019e+00   5.8506542e+00   5.8676752e+00   5.8769395e+00   5.8819672e+00   5.8808006e+00   5.9125369e+00   5.8952542e+00   6.0215182e+00   5.4967739e+00   4.9439743e+00   5.4165323e+00   5.3316737e+00   5.1563775e+00   4.9114268e+00   4.9424065e+00   4.9016581e+00   4.9251390e+00   4.9870948e+00   4.9308722e+00   4.8455732e+00   4.9273316e+00   4.9851489e+00   5.3518577e+00   5.4508183e+00   5.6633207e+00   5.8376481e+00   5.1477627e+00   5.0997603e+00   4.9873588e+00   5.1207095e+00   4.8486787e+00   4.9409040e+00   4.3980557e+00   4.1201972e+00   3.9736000e+00   3.8630895e+00   3.7746451e+00   3.6693243e+00   3.6013780e+00   3.5336828e+00   3.4970636e+00   3.3924712e+00   3.3588029e+00   3.3080113e+00   3.2545784e+00   3.2018983e+00   3.1725422e+00   3.1079185e+00   3.0964822e+00   3.0548432e+00   3.0260613e+00   2.9924028e+00   2.9700817e+00   2.9037220e+00   2.9116699e+00   2.8700592e+00   2.8144404e+00   2.7893946e+00   2.7409634e+00   2.7008571e+00   2.6625985e+00   2.6274701e+00   2.5916969e+00   2.5753004e+00   2.5443460e+00   2.5324358e+00   2.5300559e+00   2.5055425e+00   2.5279040e+00   2.5242058e+00   2.5190871e+00   2.5190309e+00   2.5493895e+00   2.5475212e+00   2.5665561e+00   2.5659272e+00   2.5827241e+00   2.5980927e+00   2.6166196e+00   2.6568801e+00   2.6558056e+00   2.6996308e+00   2.6751827e+00   2.6592212e+00   2.6754169e+00   2.6888682e+00   2.6967004e+00   2.7010525e+00   2.6769426e+00   2.6533769e+00   2.6072191e+00   2.5501447e+00   2.4560715e+00   2.3696580e+00   2.2340288e+00   2.1537008e+00   1.9897545e+00   1.9791112e+00   1.9066322e+00   1.9026049e+00   1.8753724e+00   1.8714914e+00   1.8609331e+00   1.8539181e+00   1.8510118e+00   1.8410051e+00   1.8265885e+00   1.8351736e+00   1.8262157e+00   1.8178285e+00   1.8190248e+00   1.7961610e+00   1.8059164e+00   1.7768620e+00   1.7430729e+00   1.7215555e+00   1.7244830e+00   1.7252252e+00   1.7251629e+00   1.7322956e+00   1.7504024e+00   1.7622477e+00   1.6857910e+00   1.7123144e+00   1.6585480e+00   1.7110843e+00   1.7887977e+00   1.7643873e+00
1.0966954e+01   1.1095060e+01   1.1189613e+01   1.1082705e+01   1.0934438e+01   1.0784277e+01   1.0678455e+01   1.0291078e+01   9.9665907e+00   9.7854940e+00   9.5007697e+00   9.4129486e+00   9.2539328e+00   9.1463118e+00   9.0944584e+00   9.0297332e+00   8.9632896e+00   9.0837293e+00   9.3117047e+00   9.6323721e+00   9.9476252e+00   1.0210129e+01   1.0338171e+01   1.0361115e+01   1.0203291e+01   9.5791921e+00   8.7915936e+00   7.9543092e+00   7.4747797e+00   7.0839847e+00   6.8407746e+00   6.7541831e+00   6.5851355e+00   6.2907409e+00   6.1875813e+00   6.2235858e+00   6.1786688e+00   6.1495065e+00   6.1098497e+00   6.1620351e+00   6.1963590e+00   6.1884890e+00   6.2539859e+00   6.2855511e+00   6.3300994e+00   6.2481686e+00   6.2509769e+00   6.2504441e+00   6.1984386e+00   6.1669079e+00   6.1532392e+00   6.0717084e+00   6.0562987e+00   6.0319890e+00   5.9945432e+00   5.8664407e+00   5.8644571e+00   5.8134906e+00   5.8315566e+00   5.8507461e+00   5.8411505e+00   5.8730818e+00   5.8898321e+00   5.8772193e+00   5.8970083e+00   6.0299074e+00   6.0188934e+00   4.9843340e+00   4.9538284e+00   5.1149751e+00   4.9824316e+00   4.7685142e+00   4.7584886e+00   4.7868600e+00   4.8663863e+00   4.9306062e+00   4.8869243e+00   4.8486276e+00   4.9720894e+00   5.1492046e+00   5.5180410e+00   5.6700315e+00   5.7894022e+00   5.9811800e+00   5.4873860e+00   4.8136832e+00   4.6806783e+00   4.7049621e+00   4.3281589e+00   4.2524330e+00   4.0143628e+00   3.9801996e+00   3.8898661e+00   3.7715610e+00   3.6949107e+00   3.6000736e+00   3.5298358e+00   3.4864312e+00   3.4285785e+00   3.3572534e+00   3.3124021e+00   3.2574025e+00   3.2054486e+00   3.1503322e+00   3.1322391e+00   3.0878625e+00   3.0494435e+00   3.0161656e+00   2.9983410e+00   2.9514676e+00   2.9168691e+00   2.8789517e+00   2.8622800e+00   2.8178360e+00   2.7992392e+00   2.7383728e+00   2.6995599e+00   2.6703735e+00   2.6329997e+00   2.6041034e+00   2.5852491e+00   2.5527032e+00   2.5387392e+00   2.5372553e+00   2.5353826e+00   2.5176258e+00   2.5300257e+00   2.5391212e+00   2.5412399e+00   2.5561835e+00   2.5681220e+00   2.5608865e+00   2.5931533e+00   2.5670186e+00   2.5948869e+00   2.6527534e+00   2.6489323e+00   2.6698251e+00   2.6749343e+00   2.6774543e+00   2.6996337e+00   2.7045631e+00   2.6918016e+00   2.6810907e+00   2.6795322e+00   2.7160162e+00   2.6346113e+00   2.6077189e+00   2.5227120e+00   2.3805775e+00   2.2671489e+00   2.2083378e+00   2.1098081e+00   2.0018152e+00   1.9166832e+00   1.8823720e+00   1.8756947e+00   1.8737296e+00   1.8679815e+00   1.8607807e+00   1.8596700e+00   1.8497359e+00   1.8720810e+00   1.8494205e+00   1.8226685e+00   1.8229276e+00   1.8126984e+00   1.8016580e+00   1.7758926e+00   1.7738588e+00   1.7325426e+00   1.7590003e+00   1.7386674e+00   1.7403379e+00   1.7009065e+00   1.7237715e+00   1.7371384e+00   1.7178495e+00   1.7568947e+00   1.7546031e+00   1.7643771e+00   1.6982349e+00   1.6739797e+00   1.7156769e+00   1.7275035e+00   1.7246423e+00
1.1251309e+01   1.1356080e+01   1.1389714e+01   1.1151622e+01   1.1006769e+01   1.0829715e+01   1.0592656e+01   1.0079650e+01   9.8925260e+00   9.8596639e+00   9.6299083e+00   9.4183996e+00   9.3502828e+00   9.0880089e+00   9.0143525e+00   9.0433762e+00   9.0452196e+00   9.1114110e+00   9.3714126e+00   9.6085573e+00   9.8499948e+00   1.0064710e+01   1.0272113e+01   1.0362776e+01   1.0199548e+01   9.6308703e+00   8.7335333e+00   7.9443124e+00   7.3343831e+00   6.9436290e+00   6.6475677e+00   6.5496495e+00   6.4962353e+00   6.2125708e+00   6.1577894e+00   6.1836091e+00   6.1449595e+00   6.0959495e+00   6.0408681e+00   6.0610710e+00   6.1138583e+00   6.1341099e+00   6.1750430e+00   6.2211554e+00   6.2072196e+00   6.1725902e+00   6.1919488e+00   6.1709030e+00   6.1605594e+00   6.1676653e+00   6.1803212e+00   6.0510241e+00   5.9941371e+00   5.9505544e+00   5.9288019e+00   5.8397955e+00   5.8428351e+00   5.7906058e+00   5.8110917e+00   5.8273265e+00   5.8510102e+00   5.8641384e+00   5.8607878e+00   5.8526311e+00   5.8724200e+00   5.9571924e+00   6.1778184e+00   5.1852707e+00   4.7759178e+00   4.8952505e+00   4.8114377e+00   4.7250609e+00   4.7050708e+00   4.6231104e+00   4.7972759e+00   4.8825753e+00   4.7801787e+00   4.8020298e+00   4.9268199e+00   5.0709867e+00   5.8384649e+00   6.1373889e+00   5.8880770e+00   5.9811782e+00   5.6823320e+00   4.7212488e+00   4.5882278e+00   4.3705980e+00   4.1766254e+00   3.9879577e+00   3.9352348e+00   3.8858934e+00   3.8008625e+00   3.6525716e+00   3.5927041e+00   3.5464439e+00   3.4841560e+00   3.4298167e+00   3.3641396e+00   3.2890843e+00   3.2609381e+00   3.2087099e+00   3.1738267e+00   3.1285574e+00   3.0925061e+00   3.0575409e+00   3.0154298e+00   2.9859758e+00   2.9654582e+00   2.8943350e+00   2.8682714e+00   2.8556352e+00   2.8062728e+00   2.7809642e+00   2.7433887e+00   2.7032020e+00   2.6797184e+00   2.6427898e+00   2.6159385e+00   2.5788676e+00   2.5788840e+00   2.5253905e+00   2.5395572e+00   2.5400009e+00   2.5452891e+00   2.5399871e+00   2.5350115e+00   2.5547343e+00   2.5490586e+00   2.5737593e+00   2.5693011e+00   2.5875681e+00   2.5982077e+00   2.5837763e+00   2.6307984e+00   2.6617321e+00   2.6333595e+00   2.6683069e+00   2.6934539e+00   2.7141514e+00   2.7064933e+00   2.7001136e+00   2.6895979e+00   2.6705532e+00   2.6584281e+00   2.6520129e+00   2.5760610e+00   2.5137783e+00   2.4129465e+00   2.1910788e+00   2.1392658e+00   2.0623114e+00   1.9728215e+00   1.8944232e+00   1.8743625e+00   1.8602397e+00   1.8665120e+00   1.8582966e+00   1.8655254e+00   1.8586620e+00   1.8591212e+00   1.8504271e+00   1.8351531e+00   1.8277805e+00   1.8177671e+00   1.8188172e+00   1.7979023e+00   1.7675871e+00   1.7399075e+00   1.7183968e+00   1.6983147e+00   1.7229207e+00   1.6976460e+00   1.7150054e+00   1.7099781e+00   1.7192548e+00   1.7336497e+00   1.7282653e+00   1.7511735e+00   1.7591781e+00   1.7513465e+00   1.7092963e+00   1.6695757e+00   1.6867701e+00   1.7347773e+00   1.6788858e+00
1.1527212e+01   1.1569847e+01   1.1419449e+01   1.1251273e+01   1.0977743e+01   1.0872905e+01   1.0465980e+01   9.9965930e+00   9.9933976e+00   9.9619276e+00   9.7283301e+00   9.5704837e+00   9.4600146e+00   9.0520151e+00   8.9053788e+00   9.1063008e+00   9.1304748e+00   9.1850403e+00   9.4655657e+00   9.6275530e+00   9.7313418e+00   9.9621423e+00   1.0261801e+01   1.0285396e+01   1.0090618e+01   9.4441307e+00   8.0903531e+00   7.5911814e+00   7.0829165e+00   6.6527258e+00   6.5071889e+00   6.3906622e+00   6.3226309e+00   6.1309303e+00   6.1388192e+00   6.1520861e+00   6.1238380e+00   6.0849937e+00   6.0014864e+00   6.0340909e+00   6.0585580e+00   6.0921864e+00   6.1066985e+00   6.1846234e+00   6.1731161e+00   6.1398890e+00   6.1553648e+00   6.1295492e+00   6.1448151e+00   6.1261078e+00   6.1676553e+00   6.0376440e+00   5.9402818e+00   5.8983431e+00   5.8685215e+00   5.8172061e+00   5.7800720e+00   5.7784373e+00   5.8224559e+00   5.8244253e+00   5.8689409e+00   5.8481285e+00   5.8496784e+00   5.8395578e+00   5.8932120e+00   5.8436127e+00   6.1890952e+00   5.3698081e+00   4.7236955e+00   4.7851794e+00   4.7823054e+00   4.7624613e+00   4.5954243e+00   4.4596305e+00   4.5539788e+00   4.8533833e+00   4.8204386e+00   4.6929893e+00   4.7920040e+00   4.9157154e+00   5.7011600e+00   6.2378420e+00   6.0321846e+00   5.9404082e+00   5.5227279e+00   4.6345178e+00   4.5169088e+00   4.3229629e+00   4.1228641e+00   3.8972409e+00   3.8395877e+00   3.7602421e+00   3.6804307e+00   3.5927912e+00   3.5103504e+00   3.4849399e+00   3.4318359e+00   3.3780413e+00   3.3072469e+00   3.2491906e+00   3.2181190e+00   3.1624379e+00   3.1252224e+00   3.1014698e+00   3.0595188e+00   3.0235117e+00   2.9787141e+00   2.9564546e+00   2.9485133e+00   2.8502028e+00   2.8505636e+00   2.8169864e+00   2.7573100e+00   2.7362249e+00   2.7050858e+00   2.6868968e+00   2.6538829e+00   2.6263313e+00   2.5898747e+00   2.5710375e+00   2.5520936e+00   2.5320049e+00   2.5482275e+00   2.5396259e+00   2.5487949e+00   2.5488609e+00   2.5778896e+00   2.5648553e+00   2.5639817e+00   2.5933229e+00   2.5947646e+00   2.6072313e+00   2.6075710e+00   2.6346911e+00   2.6492420e+00   2.6569489e+00   2.6753366e+00   2.6920786e+00   2.7094063e+00   2.6940002e+00   2.7079033e+00   2.6935520e+00   2.6803979e+00   2.5713367e+00   2.5812770e+00   2.5709450e+00   2.4679722e+00   2.3952712e+00   2.2954121e+00   2.1111551e+00   2.0755734e+00   1.9795751e+00   1.9071576e+00   1.8969907e+00   1.8759811e+00   1.8410567e+00   1.8686081e+00   1.8693577e+00   1.8682432e+00   1.8548962e+00   1.8466344e+00   1.8358070e+00   1.8374801e+00   1.8084812e+00   1.7954790e+00   1.7789061e+00   1.7789656e+00   1.7337678e+00   1.7100950e+00   1.6877529e+00   1.6938603e+00   1.6980062e+00   1.6958374e+00   1.6999513e+00   1.7155354e+00   1.7340115e+00   1.7581483e+00   1.7528942e+00   1.7491439e+00   1.7501690e+00   1.7316948e+00   1.6823298e+00   1.6362249e+00   1.6114043e+00   1.7078735e+00   1.6464456e+00
1.1761767e+01   1.1680938e+01   1.1494117e+01   1.1363155e+01   1.1029480e+01   1.0772282e+01   1.0398214e+01   9.9983582e+00   1.0029261e+01   9.9686568e+00   9.7111950e+00   9.6648531e+00   9.5108030e+00   9.0723521e+00   8.8358715e+00   9.2056906e+00   9.2307798e+00   9.2142891e+00   9.4311969e+00   9.5698421e+00   9.6545510e+00   9.8191281e+00   1.0066858e+01   1.0240582e+01   9.5482874e+00   7.9266969e+00   6.9207532e+00   6.8417338e+00   6.6599874e+00   6.3726993e+00   6.3423895e+00   6.2600779e+00   6.1713396e+00   6.1032563e+00   6.1028036e+00   6.1427613e+00   6.0930248e+00   6.0445684e+00   5.9753696e+00   5.9823701e+00   6.0367075e+00   6.0623830e+00   6.0815281e+00   6.1584165e+00   6.1460821e+00   6.1091457e+00   6.1195662e+00   6.1016106e+00   6.1045505e+00   6.1001725e+00   6.0086448e+00   6.0316407e+00   5.9496084e+00   5.8494484e+00   5.8088511e+00   5.7793306e+00   5.7792865e+00   5.7983519e+00   5.8081861e+00   5.8358608e+00   5.8699396e+00   5.8271223e+00   5.7932863e+00   5.8138088e+00   5.8549144e+00   5.8415155e+00   6.0027285e+00   5.3302277e+00   4.7125939e+00   4.7305266e+00   4.7840568e+00   4.7631956e+00   4.4930751e+00   4.3581028e+00   4.4190048e+00   4.7435331e+00   4.8485085e+00   4.6587494e+00   4.7315256e+00   4.9172293e+00   5.3180840e+00   6.0689633e+00   5.8876176e+00   5.6368770e+00   5.0106844e+00   4.5969386e+00   4.4285408e+00   4.2616563e+00   4.0762945e+00   3.8387770e+00   3.7346094e+00   3.6518045e+00   3.5745886e+00   3.5369955e+00   3.4615892e+00   3.4059042e+00   3.3618687e+00   3.3185673e+00   3.2588098e+00   3.2114529e+00   3.1793314e+00   3.1306744e+00   3.0867380e+00   3.0497972e+00   3.0261379e+00   2.9934172e+00   2.9349059e+00   2.9080206e+00   2.8893238e+00   2.8258649e+00   2.8246024e+00   2.7824382e+00   2.7493934e+00   2.7108978e+00   2.6907375e+00   2.6679772e+00   2.6255738e+00   2.5896226e+00   2.5764855e+00   2.5645345e+00   2.5634298e+00   2.5581450e+00   2.5581667e+00   2.5447368e+00   2.5447729e+00   2.5616526e+00   2.5750371e+00   2.6009146e+00   2.6047727e+00   2.6127528e+00   2.6218515e+00   2.6192364e+00   2.6541708e+00   2.6512660e+00   2.6728026e+00   2.6949701e+00   2.7085571e+00   2.7073938e+00   2.7041877e+00   2.7111319e+00   2.7079076e+00   2.6697599e+00   2.5864755e+00   2.5005948e+00   2.4327454e+00   2.3551349e+00   2.2335921e+00   2.1964440e+00   2.1264029e+00   1.9904159e+00   1.9820347e+00   1.9290502e+00   1.9017203e+00   1.8788270e+00   1.8800039e+00   1.8610283e+00   1.8653312e+00   1.8796178e+00   1.8682484e+00   1.8428322e+00   1.8269494e+00   1.8139984e+00   1.7954216e+00   1.7888202e+00   1.7605697e+00   1.7429179e+00   1.7275815e+00   1.7036564e+00   1.6970080e+00   1.6974761e+00   1.7178800e+00   1.6822505e+00   1.6716637e+00   1.7244825e+00   1.7329736e+00   1.7368701e+00   1.7593504e+00   1.7554875e+00   1.7315036e+00   1.7266236e+00   1.7194375e+00   1.6679256e+00   1.6189039e+00   1.6131714e+00   1.6426443e+00   1.6163125e+00
1.1898261e+01   1.1708294e+01   1.1601051e+01   1.1475272e+01   1.0963269e+01   1.0637676e+01   1.0235997e+01   1.0006748e+01   1.0044061e+01   9.9244377e+00   9.6789461e+00   9.5718692e+00   9.4675106e+00   9.0431146e+00   8.8403523e+00   9.1824608e+00   9.2315856e+00   9.1960468e+00   9.4120324e+00   9.5153394e+00   9.5128289e+00   9.6578034e+00   9.9249306e+00   9.9931728e+00   7.7574730e+00   6.4294656e+00   6.3066280e+00   6.2758128e+00   6.3151568e+00   6.2451844e+00   6.1787191e+00   6.1400510e+00   6.1024362e+00   6.0607654e+00   6.0547088e+00   6.0885302e+00   6.0552888e+00   6.0334339e+00   5.9459751e+00   5.9339670e+00   5.9826336e+00   6.0339608e+00   6.0514171e+00   6.1456285e+00   6.1550849e+00   6.1360181e+00   6.1363514e+00   6.0981016e+00   6.0816204e+00   6.0715835e+00   6.0079773e+00   6.0006001e+00   5.9279015e+00   5.8189694e+00   5.7478921e+00   5.7430858e+00   5.7817567e+00   5.7908225e+00   5.8099833e+00   5.8342122e+00   5.8353103e+00   5.7693954e+00   5.7730378e+00   5.7958492e+00   5.8121726e+00   5.6814939e+00   5.6669641e+00   5.2508469e+00   4.7034161e+00   4.7024815e+00   4.7297241e+00   4.7199454e+00   4.4012388e+00   4.3159282e+00   4.3451559e+00   4.5865328e+00   4.8055802e+00   4.6959093e+00   4.7045479e+00   4.7502766e+00   5.0368847e+00   5.5845035e+00   5.5826221e+00   5.3613401e+00   4.8292784e+00   4.4359856e+00   4.3068215e+00   4.1934492e+00   3.9978187e+00   3.8001599e+00   3.6785814e+00   3.5747410e+00   3.4983552e+00   3.4674816e+00   3.4116194e+00   3.3348905e+00   3.2946513e+00   3.2583524e+00   3.2119582e+00   3.1868108e+00   3.1470807e+00   3.0930568e+00   3.0432849e+00   3.0143126e+00   2.9983341e+00   2.9639391e+00   2.9364999e+00   2.8735926e+00   2.8459505e+00   2.8012385e+00   2.7535533e+00   2.7403241e+00   2.7325982e+00   2.6921682e+00   2.6663664e+00   2.6331415e+00   2.5922309e+00   2.5708705e+00   2.5708739e+00   2.5673593e+00   2.5667293e+00   2.5659059e+00   2.5732583e+00   2.5753766e+00   2.5736774e+00   2.5905897e+00   2.6043123e+00   2.6249423e+00   2.6363905e+00   2.6418925e+00   2.6710540e+00   2.6600290e+00   2.6789803e+00   2.7079075e+00   2.7015252e+00   2.7022033e+00   2.7048190e+00   2.7091509e+00   2.6778834e+00   2.6534578e+00   2.5665831e+00   2.5173008e+00   2.4547591e+00   2.4720708e+00   2.3468353e+00   2.1951546e+00   2.0266041e+00   2.1516894e+00   2.0385409e+00   1.9665164e+00   1.9197834e+00   1.8884238e+00   1.8803036e+00   1.8805000e+00   1.8762367e+00   1.8739537e+00   1.8508827e+00   1.8638963e+00   1.8487360e+00   1.8324029e+00   1.8134926e+00   1.8007909e+00   1.7650268e+00   1.7629846e+00   1.7418523e+00   1.7227614e+00   1.6995646e+00   1.6792869e+00   1.6858499e+00   1.7089825e+00   1.7161344e+00   1.6801312e+00   1.7074630e+00   1.7415480e+00   1.7400073e+00   1.7458334e+00   1.7109603e+00   1.7548109e+00   1.7254615e+00   1.6987081e+00   1.6521607e+00   1.6542978e+00   1.6083491e+00   1.6032369e+00   1.5968102e+00   1.6128537e+00
1.2100478e+01   1.1809638e+01   1.1622401e+01   1.1530951e+01   1.0797752e+01   1.0528541e+01   1.0179109e+01   1.0187458e+01   1.0014887e+01   9.8810151e+00   9.6227815e+00   9.4324508e+00   9.3251486e+00   9.0426293e+00   8.8076743e+00   9.1045197e+00   9.2742756e+00   9.1038663e+00   9.3562475e+00   9.4175880e+00   8.4579756e+00   9.2981419e+00   8.9785207e+00   7.4645140e+00   6.4278083e+00   6.3100538e+00   6.2530568e+00   6.2129963e+00   6.1909215e+00   6.1936873e+00   6.1566103e+00   6.1552521e+00   6.0751545e+00   6.0230828e+00   5.9961592e+00   6.0440712e+00   6.0240831e+00   5.9823868e+00   5.9259699e+00   5.9016533e+00   5.9785553e+00   6.0504021e+00   6.0628918e+00   6.0958553e+00   6.1343065e+00   6.2092045e+00   6.2869072e+00   6.1365524e+00   6.0727953e+00   6.0257069e+00   5.9900273e+00   5.9459303e+00   5.8796973e+00   5.7945362e+00   5.7826278e+00   5.7557648e+00   5.7709323e+00   5.7871077e+00   5.8047258e+00   5.8100039e+00   5.8048555e+00   5.7048549e+00   5.7786744e+00   5.7928245e+00   5.8037537e+00   5.5923881e+00   5.3604700e+00   5.2358794e+00   4.8153328e+00   4.7145149e+00   4.6524405e+00   4.6689964e+00   4.3501655e+00   4.1698323e+00   4.2503904e+00   4.4802825e+00   4.7222338e+00   4.6669271e+00   4.6288354e+00   4.7065304e+00   4.8300160e+00   5.1643447e+00   5.3634868e+00   5.3667964e+00   4.8922649e+00   4.3055226e+00   4.2237005e+00   4.0656611e+00   3.9233731e+00   3.7799550e+00   3.6270474e+00   3.5084483e+00   3.4490514e+00   3.3927055e+00   3.3593702e+00   3.2888657e+00   3.2462772e+00   3.2088088e+00   3.1686585e+00   3.1378663e+00   3.1094518e+00   3.0524082e+00   3.0342289e+00   2.9923923e+00   2.9541238e+00   2.9298847e+00   2.8813994e+00   2.8549969e+00   2.8427053e+00   2.7706843e+00   2.7398162e+00   2.7079433e+00   2.6866889e+00   2.6683919e+00   2.6430732e+00   2.6129928e+00   2.5873973e+00   2.5699999e+00   2.5623085e+00   2.5775891e+00   2.5773769e+00   2.5852934e+00   2.5843178e+00   2.5970596e+00   2.5863073e+00   2.6212129e+00   2.6427016e+00   2.6478778e+00   2.6789828e+00   2.6757260e+00   2.6900010e+00   2.7046635e+00   2.6939073e+00   2.7129026e+00   2.6986210e+00   2.6827834e+00   2.6777829e+00   2.6403689e+00   2.6168634e+00   2.5636675e+00   2.4460003e+00   2.3522793e+00   2.2894220e+00   2.2620866e+00   2.2713166e+00   2.1418861e+00   2.0271922e+00   1.9906262e+00   1.9788254e+00   1.9762650e+00   1.9261984e+00   1.8866651e+00   1.8383912e+00   1.8424573e+00   1.8617289e+00   1.8639842e+00   1.8380875e+00   1.8432237e+00   1.8171383e+00   1.8136705e+00   1.7709845e+00   1.7684018e+00   1.7381528e+00   1.7421774e+00   1.7285824e+00   1.7057303e+00   1.6828000e+00   1.6800325e+00   1.6938593e+00   1.7197679e+00   1.7095056e+00   1.6943671e+00   1.7053732e+00   1.7428071e+00   1.7573622e+00   1.7620986e+00   1.7088901e+00   1.7166743e+00   1.6722690e+00   1.6626785e+00   1.6280923e+00   1.6365168e+00   1.5974794e+00   1.5899532e+00   1.5689424e+00   1.6235613e+00
1.2132702e+01   1.1941100e+01   1.1643413e+01   1.1359007e+01   1.0635870e+01   1.0424052e+01   1.0442932e+01   1.0349278e+01   9.9936221e+00   9.8356084e+00   9.5811596e+00   9.3349973e+00   9.1646226e+00   9.0393136e+00   8.7978268e+00   9.0348920e+00   9.1467022e+00   8.9564129e+00   9.2822743e+00   8.9960098e+00   7.5127422e+00   6.3036040e+00   7.1974229e+00   6.5176394e+00   6.3555085e+00   6.3146009e+00   6.2582774e+00   6.1955051e+00   6.1950544e+00   6.2003423e+00   6.1762306e+00   6.1405399e+00   6.0446836e+00   5.9606419e+00   5.9932668e+00   6.0155948e+00   6.0072907e+00   5.9388951e+00   5.9304126e+00   5.9350787e+00   6.0486100e+00   6.0875288e+00   6.0473966e+00   6.0375411e+00   6.0802590e+00   6.2255199e+00   6.2822961e+00   6.1689638e+00   6.0191841e+00   5.9856965e+00   5.9867980e+00   5.9102007e+00   5.8205699e+00   5.7589542e+00   5.7841869e+00   5.7777283e+00   5.7606804e+00   5.7704454e+00   5.7828185e+00   5.7702834e+00   5.7484160e+00   5.7134274e+00   5.7900904e+00   5.7872359e+00   5.7344627e+00   5.5498099e+00   5.2601981e+00   5.3679778e+00   4.9826897e+00   4.7559369e+00   4.6629444e+00   4.6617237e+00   4.3143954e+00   4.0444353e+00   4.1144079e+00   4.3223464e+00   4.5449715e+00   4.5489333e+00   4.5133532e+00   4.7565254e+00   4.7259860e+00   4.8214538e+00   5.2055343e+00   5.3818911e+00   4.9159869e+00   4.2575721e+00   4.1458399e+00   3.9898738e+00   3.8422842e+00   3.7012341e+00   3.5881474e+00   3.5022018e+00   3.4331360e+00   3.3507241e+00   3.3056814e+00   3.2285959e+00   3.2049344e+00   3.1749548e+00   3.1327788e+00   3.1041845e+00   3.0617236e+00   3.0310328e+00   3.0081214e+00   2.9782345e+00   2.9210065e+00   2.8945885e+00   2.8688875e+00   2.8207768e+00   2.7793302e+00   2.7452997e+00   2.7311302e+00   2.6920834e+00   2.6617596e+00   2.6496449e+00   2.6275348e+00   2.5949774e+00   2.5934010e+00   2.5681102e+00   2.5671488e+00   2.5799120e+00   2.5939007e+00   2.5846552e+00   2.6075888e+00   2.6144229e+00   2.6176168e+00   2.6511263e+00   2.6638300e+00   2.6655968e+00   2.7006881e+00   2.6967718e+00   2.6909101e+00   2.7055556e+00   2.7178814e+00   2.7260134e+00   2.6823144e+00   2.7136007e+00   2.6355784e+00   2.5800748e+00   2.5154711e+00   2.4111777e+00   2.3837127e+00   2.2194957e+00   2.1076146e+00   2.1372304e+00   2.1266955e+00   2.0453073e+00   2.0214258e+00   1.8863286e+00   1.8872632e+00   1.8982085e+00   1.8978089e+00   1.8824857e+00   1.8216949e+00   1.8383240e+00   1.8358616e+00   1.8355706e+00   1.8198153e+00   1.8150665e+00   1.7899432e+00   1.7559678e+00   1.7464800e+00   1.7308331e+00   1.6993566e+00   1.7192183e+00   1.7093042e+00   1.7018982e+00   1.7094336e+00   1.7060588e+00   1.7279697e+00   1.7277061e+00   1.7136060e+00   1.6891052e+00   1.7257059e+00   1.7550188e+00   1.7466020e+00   1.7452302e+00   1.7111373e+00   1.6855052e+00   1.6485582e+00   1.6380392e+00   1.6373813e+00   1.6151003e+00   1.6032146e+00   1.5806960e+00   1.5745087e+00   1.6057476e+00
1.2264746e+01   1.1999370e+01   1.1680605e+01   1.1119656e+01   1.0515147e+01   1.0347504e+01   1.0416779e+01   1.0286147e+01   9.8523569e+00   9.7190503e+00   9.5511769e+00   9.3990643e+00   9.1951710e+00   8.9105906e+00   8.7597034e+00   8.8489442e+00   8.9508814e+00   8.8901320e+00   9.1877744e+00   8.8233344e+00   7.0134533e+00   6.2845309e+00   6.3348996e+00   6.3692269e+00   6.3338183e+00   6.3015285e+00   6.2869974e+00   6.2062845e+00   6.4377879e+00   6.6153987e+00   6.4053592e+00   6.1925953e+00   6.0529275e+00   5.9352624e+00   5.9598085e+00   5.9705673e+00   5.9674521e+00   5.8771500e+00   5.8824075e+00   5.9041374e+00   6.0292818e+00   6.0954194e+00   6.0941797e+00   6.0073145e+00   6.0790965e+00   6.2129275e+00   6.2645463e+00   6.0824039e+00   5.9876809e+00   5.9565779e+00   5.9380807e+00   5.8641989e+00   5.8193560e+00   5.7216803e+00   5.7713662e+00   5.7801648e+00   5.7441896e+00   5.7560302e+00   5.7768619e+00   5.7398801e+00   5.7247838e+00   5.7239738e+00   5.8085642e+00   5.7533614e+00   5.6533014e+00   5.4796813e+00   5.4339495e+00   5.4456290e+00   5.1190373e+00   4.8296856e+00   4.6885169e+00   4.7092048e+00   4.2938973e+00   4.0470941e+00   3.9872165e+00   4.1037048e+00   4.2895969e+00   4.3699414e+00   4.4746882e+00   4.6957679e+00   4.7509407e+00   4.7127456e+00   5.0196726e+00   5.2184262e+00   4.9151183e+00   4.1677347e+00   4.0468311e+00   3.9223226e+00   3.7671267e+00   3.6775536e+00   3.5541936e+00   3.4432158e+00   3.3788081e+00   3.3001592e+00   3.2554625e+00   3.2054132e+00   3.1680943e+00   3.1274877e+00   3.1071356e+00   3.0795496e+00   3.0485027e+00   3.0013231e+00   2.9768488e+00   2.9544736e+00   2.8922571e+00   2.8657807e+00   2.8223884e+00   2.7921850e+00   2.7626777e+00   2.7239454e+00   2.6846408e+00   2.6704448e+00   2.6668509e+00   2.6264593e+00   2.6034929e+00   2.5865035e+00   2.6052368e+00   2.5716260e+00   2.5702052e+00   2.5818395e+00   2.5952795e+00   2.6004413e+00   2.6202905e+00   2.6433445e+00   2.6479154e+00   2.6697979e+00   2.6916178e+00   2.7307644e+00   2.7121025e+00   2.7257441e+00   2.7112973e+00   2.7110293e+00   2.7226433e+00   2.7210976e+00   2.6770791e+00   2.6890500e+00   2.6097984e+00   2.5792957e+00   2.4200799e+00   2.3353107e+00   2.3163772e+00   2.1788216e+00   2.0012961e+00   2.0371970e+00   2.0235103e+00   1.9714836e+00   1.9320269e+00   1.8532749e+00   1.8994966e+00   1.8870008e+00   1.8567108e+00   1.8599470e+00   1.7693569e+00   1.8137742e+00   1.7413538e+00   1.8125016e+00   1.7749856e+00   1.7644689e+00   1.7553472e+00   1.7051200e+00   1.7092495e+00   1.7023090e+00   1.6943931e+00   1.7216982e+00   1.7337601e+00   1.7162183e+00   1.7320081e+00   1.7304286e+00   1.7435470e+00   1.7273480e+00   1.7348051e+00   1.6841358e+00   1.7227858e+00   1.7910226e+00   1.7119726e+00   1.7120222e+00   1.6687743e+00   1.6790406e+00   1.6420457e+00   1.6371774e+00   1.6299674e+00   1.6110297e+00   1.6090650e+00   1.5855848e+00   1.5906878e+00   1.5729454e+00
1.2279863e+01   1.2059265e+01   1.1749320e+01   1.1167941e+01   1.0525198e+01   1.0286628e+01   1.0211980e+01   1.0104204e+01   9.8558795e+00   9.6040753e+00   9.5573364e+00   9.4635838e+00   9.3023946e+00   8.8190874e+00   8.7467655e+00   8.6785483e+00   8.8112524e+00   8.7438905e+00   9.0398877e+00   8.8903326e+00   6.7701834e+00   6.3082909e+00   6.3374916e+00   6.3258749e+00   6.4398738e+00   6.3731687e+00   6.5710951e+00   6.9184919e+00   7.2059390e+00   7.0474631e+00   6.8877797e+00   6.4838919e+00   6.0660998e+00   5.9719531e+00   5.8702490e+00   5.9327894e+00   5.9178479e+00   5.8442750e+00   5.8176420e+00   5.8449567e+00   5.9516579e+00   6.0437190e+00   6.0483749e+00   6.0029849e+00   6.0235667e+00   6.1389255e+00   6.1915633e+00   6.0400851e+00   6.0096106e+00   5.9495191e+00   5.8620370e+00   5.8025758e+00   5.7511796e+00   5.7317649e+00   5.7460106e+00   5.7479505e+00   5.7401910e+00   5.7508268e+00   5.7154342e+00   5.7141324e+00   5.6890167e+00   5.7444627e+00   5.8952373e+00   5.7862708e+00   5.5916821e+00   5.4745925e+00   5.5893039e+00   5.5073117e+00   5.2012495e+00   4.8933954e+00   4.6896665e+00   4.6579521e+00   4.3023442e+00   4.1173883e+00   3.9386486e+00   4.0390965e+00   4.1304984e+00   4.2304585e+00   4.4942994e+00   4.6546342e+00   4.7499902e+00   4.7353322e+00   4.7065873e+00   5.1021532e+00   4.8632413e+00   4.0831342e+00   3.9919091e+00   3.8956459e+00   3.7235450e+00   3.5947973e+00   3.5177568e+00   3.3971625e+00   3.3002297e+00   3.2580152e+00   3.2088124e+00   3.1689423e+00   3.1229608e+00   3.0906463e+00   3.0826135e+00   3.0339424e+00   3.0222332e+00   2.9682294e+00   2.9589644e+00   2.9065552e+00   2.8545876e+00   2.8275962e+00   2.8121293e+00   2.7622368e+00   2.7259721e+00   2.6960510e+00   2.6476551e+00   2.6384131e+00   2.6194675e+00   2.6053336e+00   2.5910566e+00   2.5795807e+00   2.6000383e+00   2.5740143e+00   2.5770101e+00   2.5829338e+00   2.6154303e+00   2.6268157e+00   2.6341271e+00   2.6766497e+00   2.6731553e+00   2.6921211e+00   2.7214208e+00   2.7444365e+00   2.7212172e+00   2.7768743e+00   2.7291342e+00   2.7296362e+00   2.7067353e+00   2.6897071e+00   2.6484019e+00   2.6261506e+00   2.5697003e+00   2.3927985e+00   2.3805452e+00   2.3295897e+00   2.2770166e+00   2.1289033e+00   1.9874780e+00   1.9996604e+00   1.9930145e+00   1.8729998e+00   1.9297580e+00   1.8821409e+00   1.8948677e+00   1.8701023e+00   1.8250611e+00   1.8128640e+00   1.7541274e+00   1.7733772e+00   1.7252443e+00   1.7375359e+00   1.7361287e+00   1.7237913e+00   1.6954932e+00   1.6896652e+00   1.6898455e+00   1.6862071e+00   1.7095212e+00   1.7197781e+00   1.7520214e+00   1.7278263e+00   1.7424040e+00   1.7479876e+00   1.7804465e+00   1.7269184e+00   1.7382709e+00   1.7013741e+00   1.7145643e+00   1.7474179e+00   1.7170236e+00   1.6705141e+00   1.6255449e+00   1.6460647e+00   1.6534501e+00   1.6438936e+00   1.6298649e+00   1.6454277e+00   1.6183475e+00   1.5928819e+00   1.5953131e+00   1.5903623e+00
1.2502439e+01   1.2149622e+01   1.1737262e+01   1.1253144e+01   1.0604147e+01   1.0347355e+01   1.0085906e+01   9.9777694e+00   9.8575739e+00   9.6552799e+00   9.5641340e+00   9.5036460e+00   9.3871347e+00   8.8357993e+00   8.7441144e+00   8.6722695e+00   8.6228542e+00   8.6313711e+00   8.8723664e+00   8.9430694e+00   7.1220026e+00   6.3103902e+00   6.3268405e+00   6.6215954e+00   6.8782451e+00   6.8739133e+00   7.3400488e+00   7.9409121e+00   7.7650472e+00   7.3502974e+00   7.0071316e+00   6.4868103e+00   6.1302514e+00   5.9887652e+00   5.7406201e+00   5.8841022e+00   5.8714068e+00   5.8139364e+00   5.7538203e+00   5.7877986e+00   5.9167860e+00   5.9602629e+00   5.9772229e+00   6.0406114e+00   5.9484541e+00   6.0453600e+00   6.1308359e+00   6.0611103e+00   5.9699665e+00   5.9115283e+00   5.8110993e+00   5.7580732e+00   5.7374680e+00   5.7467030e+00   5.7324957e+00   5.7087983e+00   5.7170578e+00   5.7025502e+00   5.6926664e+00   5.6662340e+00   5.6605332e+00   5.9824872e+00   6.0465176e+00   5.9032073e+00   5.5433626e+00   5.3879731e+00   5.4814947e+00   5.5311172e+00   5.2388372e+00   4.9088714e+00   4.6670021e+00   4.7176475e+00   4.4957737e+00   4.2485838e+00   3.9978947e+00   4.0232342e+00   4.0669584e+00   4.1457633e+00   4.5125114e+00   4.6765211e+00   4.7730129e+00   4.7216083e+00   4.6157942e+00   4.8942569e+00   4.8054513e+00   3.9999153e+00   3.8997033e+00   3.7959130e+00   3.6506968e+00   3.5658612e+00   3.4577362e+00   3.3432831e+00   3.2818350e+00   3.2143977e+00   3.1860227e+00   3.1339447e+00   3.0922834e+00   3.0716189e+00   3.0478302e+00   3.0127653e+00   2.9600652e+00   2.9429035e+00   2.9148177e+00   2.8632601e+00   2.8363887e+00   2.7869168e+00   2.7909092e+00   2.7511735e+00   2.7047699e+00   2.6673718e+00   2.6360390e+00   2.6200477e+00   2.5966240e+00   2.5785089e+00   2.5739982e+00   2.5844431e+00   2.5795590e+00   2.5896582e+00   2.5970363e+00   2.6036955e+00   2.6273576e+00   2.6412499e+00   2.6515117e+00   2.6874873e+00   2.6847326e+00   2.7220623e+00   2.7395471e+00   2.7554482e+00   2.7504818e+00   2.7698023e+00   2.7209647e+00   2.7196512e+00   2.6958796e+00   2.6744156e+00   2.6092842e+00   2.5538938e+00   2.4589484e+00   2.3644615e+00   2.3304434e+00   2.2819760e+00   2.1818583e+00   2.0650983e+00   1.9844793e+00   1.9449079e+00   1.9504652e+00   1.8969915e+00   1.9079382e+00   1.8756199e+00   1.8455601e+00   1.8376483e+00   1.8144388e+00   1.7644242e+00   1.7357745e+00   1.7249456e+00   1.7345527e+00   1.6927341e+00   1.7056507e+00   1.7071324e+00   1.7084616e+00   1.6894387e+00   1.6992642e+00   1.7192510e+00   1.7116562e+00   1.7247584e+00   1.7506756e+00   1.7269371e+00   1.7646730e+00   1.7520745e+00   1.7819470e+00   1.7336121e+00   1.7298603e+00   1.6947624e+00   1.7173239e+00   1.6667443e+00   1.6991801e+00   1.6523874e+00   1.6343501e+00   1.6498559e+00   1.6621535e+00   1.6528858e+00   1.6424901e+00   1.6508862e+00   1.6306661e+00   1.5757064e+00   1.5994019e+00   1.5948018e+00
1.2643460e+01   1.2236490e+01   1.1868813e+01   1.1293588e+01   1.0723452e+01   1.0500986e+01   1.0140542e+01   1.0031769e+01   9.8266082e+00   9.6321509e+00   9.5519870e+00   9.4895304e+00   9.3800435e+00   8.8697866e+00   8.7554590e+00   8.7168337e+00   8.4789666e+00   8.4802653e+00   8.7476726e+00   8.8747295e+00   8.0276979e+00   6.3512340e+00   6.5003133e+00   7.2392860e+00   7.4263138e+00   7.4610286e+00   7.9646730e+00   8.4444034e+00   7.8698623e+00   7.3957688e+00   7.0210597e+00   6.5543663e+00   6.1739504e+00   5.9701946e+00   5.7538402e+00   5.8263166e+00   5.8204501e+00   5.8093437e+00   5.6985007e+00   5.6629752e+00   5.8291614e+00   5.8987071e+00   5.9927129e+00   6.0475116e+00   5.9358814e+00   5.9837274e+00   6.0784338e+00   6.0246823e+00   5.9207364e+00   5.8601639e+00   5.7865901e+00   5.7072918e+00   5.7415814e+00   5.7432819e+00   5.6885459e+00   5.7013940e+00   5.6696957e+00   5.6579745e+00   5.6669258e+00   5.6503065e+00   5.7876925e+00   6.3103919e+00   6.2474879e+00   5.9661944e+00   5.5272743e+00   5.3278868e+00   5.2613222e+00   5.5496122e+00   5.2029784e+00   4.9094676e+00   4.6302185e+00   4.7284783e+00   4.6563813e+00   4.3621920e+00   4.1679798e+00   4.0281947e+00   4.0766967e+00   4.1983011e+00   4.5060758e+00   4.6814075e+00   4.8136201e+00   4.7858573e+00   4.5803914e+00   4.6846055e+00   4.6962316e+00   4.0290152e+00   3.8161723e+00   3.7177045e+00   3.6098760e+00   3.5065461e+00   3.3867745e+00   3.3107978e+00   3.2554944e+00   3.1887172e+00   3.1451581e+00   3.0822951e+00   3.0781753e+00   3.0334605e+00   3.0236307e+00   2.9858304e+00   2.9510545e+00   2.9207558e+00   2.8934827e+00   2.8479361e+00   2.8113329e+00   2.7820652e+00   2.7621104e+00   2.7208888e+00   2.6889868e+00   2.6472400e+00   2.6215883e+00   2.6020946e+00   2.5983404e+00   2.5635146e+00   2.5669511e+00   2.5852588e+00   2.5885610e+00   2.6098909e+00   2.6224376e+00   2.6142026e+00   2.6301290e+00   2.6564989e+00   2.6818068e+00   2.6975871e+00   2.7141336e+00   2.7483159e+00   2.7604988e+00   2.7455008e+00   2.7504895e+00   2.7379907e+00   2.7241107e+00   2.7038632e+00   2.6307721e+00   2.5900156e+00   2.5638859e+00   2.4782149e+00   2.3881389e+00   2.3308201e+00   2.2545216e+00   2.1488852e+00   2.0349917e+00   1.9546990e+00   1.9223543e+00   1.8941302e+00   1.8897806e+00   1.8867308e+00   1.8385942e+00   1.8336507e+00   1.8441132e+00   1.7750051e+00   1.7801746e+00   1.7345991e+00   1.7151177e+00   1.6825030e+00   1.6955003e+00   1.6851176e+00   1.6649331e+00   1.6590608e+00   1.6989559e+00   1.7040236e+00   1.7076997e+00   1.7455944e+00   1.7261400e+00   1.7501874e+00   1.7500252e+00   1.7401447e+00   1.7775510e+00   1.7467360e+00   1.6930407e+00   1.7395588e+00   1.6862612e+00   1.6917254e+00   1.7144866e+00   1.6796339e+00   1.6591162e+00   1.6817000e+00   1.6368130e+00   1.6487723e+00   1.6818637e+00   1.6705710e+00   1.6596168e+00   1.6790018e+00   1.6277996e+00   1.5809510e+00   1.5985693e+00   1.5801499e+00
1.2866083e+01   1.2428191e+01   1.2029121e+01   1.1528770e+01   1.1088763e+01   1.0756523e+01   1.0268558e+01   1.0100100e+01   9.8387578e+00   9.6253997e+00   9.5124240e+00   9.4076043e+00   9.3198163e+00   8.8055210e+00   8.7279249e+00   8.6051187e+00   8.3759536e+00   8.4275762e+00   8.6188706e+00   8.8017433e+00   8.6208325e+00   7.2960318e+00   7.0811242e+00   7.8306316e+00   7.9665386e+00   8.0257321e+00   8.5094074e+00   8.5627039e+00   7.9507520e+00   7.4698028e+00   7.0128563e+00   6.5907645e+00   6.1080004e+00   5.9405591e+00   5.8474383e+00   5.8018555e+00   5.8079766e+00   5.7542734e+00   5.6204064e+00   5.5766906e+00   5.7077761e+00   5.8253714e+00   5.9022700e+00   6.0147143e+00   5.9518960e+00   5.9901078e+00   6.0369426e+00   5.9595596e+00   5.8598957e+00   5.7897260e+00   5.7099844e+00   5.6997633e+00   5.7048301e+00   5.6995280e+00   5.6698327e+00   5.6645102e+00   5.6362949e+00   5.6380527e+00   5.6474096e+00   5.6117531e+00   6.1783035e+00   6.4087798e+00   6.2258292e+00   5.8779015e+00   5.4280888e+00   5.2210573e+00   5.0848951e+00   5.3754840e+00   4.9969334e+00   4.7242023e+00   4.5314393e+00   4.7504163e+00   4.7329599e+00   4.5400951e+00   4.2967083e+00   4.1663088e+00   4.2200427e+00   4.3298097e+00   4.6266976e+00   4.7305644e+00   4.8617109e+00   4.9056668e+00   4.6374676e+00   4.5757635e+00   4.4764867e+00   3.8932836e+00   3.7986688e+00   3.6790384e+00   3.5354469e+00   3.4377816e+00   3.3521042e+00   3.2760568e+00   3.2032203e+00   3.1684203e+00   3.1179530e+00   3.0589055e+00   3.0466245e+00   3.0090349e+00   3.0075650e+00   2.9645849e+00   2.9050896e+00   2.9042557e+00   2.8681716e+00   2.8326384e+00   2.7901781e+00   2.7617009e+00   2.7367172e+00   2.6815880e+00   2.6742614e+00   2.6291043e+00   2.6039496e+00   2.6024507e+00   2.5986499e+00   2.5829215e+00   2.5760901e+00   2.5978463e+00   2.5919501e+00   2.6204392e+00   2.6423999e+00   2.6399324e+00   2.6574637e+00   2.6867939e+00   2.7135399e+00   2.7062414e+00   2.7420326e+00   2.7654936e+00   2.7708901e+00   2.7678514e+00   2.7315648e+00   2.6925732e+00   2.7457608e+00   2.6406242e+00   2.5668094e+00   2.5710682e+00   2.4584444e+00   2.3638094e+00   2.3080640e+00   2.2104689e+00   2.1263639e+00   2.0399610e+00   1.9566963e+00   1.9110699e+00   1.8943510e+00   1.8664933e+00   1.8416846e+00   1.8636060e+00   1.8304136e+00   1.8198537e+00   1.7781974e+00   1.7631890e+00   1.7355431e+00   1.7122596e+00   1.6965105e+00   1.6830433e+00   1.6498466e+00   1.6715173e+00   1.7113162e+00   1.6783123e+00   1.7364961e+00   1.7375256e+00   1.7454038e+00   1.7491261e+00   1.7489146e+00   1.7591284e+00   1.7490773e+00   1.7432191e+00   1.7670657e+00   1.7499453e+00   1.6929834e+00   1.7210189e+00   1.6801915e+00   1.6871762e+00   1.6896817e+00   1.6852385e+00   1.6702253e+00   1.6801996e+00   1.6560582e+00   1.6590616e+00   1.6851991e+00   1.6797297e+00   1.6686365e+00   1.6666535e+00   1.6324538e+00   1.5976671e+00   1.5890651e+00   1.5703611e+00
1.3048827e+01   1.2675757e+01   1.2609952e+01   1.2364052e+01   1.1634717e+01   1.1189166e+01   1.0759069e+01   1.0233427e+01   9.9816298e+00   9.7161221e+00   9.4676679e+00   9.3628635e+00   9.0909308e+00   8.4743345e+00   8.6058599e+00   8.4264950e+00   8.2571219e+00   8.3506524e+00   8.4808070e+00   8.6571555e+00   8.8414317e+00   7.9247165e+00   7.7316374e+00   8.4612283e+00   8.4687975e+00   8.5787259e+00   8.7595679e+00   8.4232680e+00   7.8793180e+00   7.3964126e+00   6.9941849e+00   6.6510592e+00   6.1801763e+00   5.8921826e+00   5.7128843e+00   5.7724313e+00   5.7826863e+00   5.7282202e+00   5.6011556e+00   5.5236477e+00   5.6516948e+00   5.8216229e+00   5.9007203e+00   5.9645557e+00   5.9412427e+00   6.0126024e+00   5.9971399e+00   5.9097916e+00   5.8145577e+00   5.6944247e+00   5.6704421e+00   5.6798015e+00   5.6718383e+00   5.6497637e+00   5.6540176e+00   5.6373976e+00   5.6179117e+00   5.5993669e+00   5.5974321e+00   5.6360154e+00   6.6056576e+00   6.4907661e+00   6.0299203e+00   5.6416676e+00   5.2907260e+00   4.9672297e+00   4.8655123e+00   5.0189516e+00   4.7004307e+00   4.4291445e+00   4.4797807e+00   4.7432076e+00   4.6495240e+00   4.7605258e+00   4.4518099e+00   4.3609390e+00   4.5629530e+00   4.8009142e+00   4.8035060e+00   4.8802007e+00   4.9745306e+00   4.9250112e+00   4.8095685e+00   4.6314917e+00   4.0785293e+00   3.7817596e+00   3.7349903e+00   3.5964441e+00   3.4660369e+00   3.3924377e+00   3.2993195e+00   3.2284611e+00   3.1806972e+00   3.1333609e+00   3.0871822e+00   3.0571520e+00   3.0339760e+00   2.9925424e+00   2.9740978e+00   2.9373228e+00   2.9073785e+00   2.8808195e+00   2.8325694e+00   2.8036315e+00   2.7654617e+00   2.7345675e+00   2.7039753e+00   2.6659406e+00   2.6484050e+00   2.6133520e+00   2.6116106e+00   2.6080154e+00   2.5917265e+00   2.5958526e+00   2.5897993e+00   2.6318015e+00   2.6178260e+00   2.6513035e+00   2.6615344e+00   2.6676535e+00   2.6795653e+00   2.7127215e+00   2.7378500e+00   2.7301831e+00   2.7394336e+00   2.7573225e+00   2.7624340e+00   2.7495071e+00   2.7031530e+00   2.6354231e+00   2.7050370e+00   2.5301860e+00   2.4919960e+00   2.4793761e+00   2.3477161e+00   2.2867760e+00   2.1932718e+00   2.1403134e+00   2.0559414e+00   1.9515017e+00   1.9149899e+00   1.8763195e+00   1.8670804e+00   1.8446230e+00   1.8331818e+00   1.8353128e+00   1.8366849e+00   1.8008917e+00   1.7538204e+00   1.7417892e+00   1.7225702e+00   1.6926612e+00   1.6654343e+00   1.7214650e+00   1.6685317e+00   1.6757260e+00   1.7544776e+00   1.7417350e+00   1.7235731e+00   1.7624525e+00   1.7491814e+00   1.7621742e+00   1.7359476e+00   1.7516790e+00   1.7290527e+00   1.7340325e+00   1.7302459e+00   1.7095092e+00   1.6892778e+00   1.6854947e+00   1.6837370e+00   1.6681034e+00   1.6723277e+00   1.6516505e+00   1.6802901e+00   1.6317182e+00   1.6716338e+00   1.6376395e+00   1.6801657e+00   1.6720702e+00   1.6733512e+00   1.6728090e+00   1.6424947e+00   1.6043969e+00   1.5829725e+00   1.5701084e+00
1.3351612e+01   1.3197401e+01   1.3120390e+01   1.3090449e+01   1.2118818e+01   1.1559598e+01   1.1313555e+01   1.1000499e+01   1.0198012e+01   9.8591357e+00   9.4491581e+00   9.0848254e+00   8.5719476e+00   8.4649256e+00   8.4705374e+00   8.2756792e+00   8.1787767e+00   8.2040310e+00   8.3661013e+00   8.4453062e+00   8.6250395e+00   8.4148723e+00   8.3076043e+00   8.8649300e+00   8.6996724e+00   8.7229692e+00   8.5568900e+00   8.2586955e+00   7.7815646e+00   7.3766223e+00   7.0080712e+00   6.6412497e+00   6.2397889e+00   5.8138098e+00   5.8112252e+00   5.7263913e+00   5.7225293e+00   5.6964788e+00   5.5580888e+00   5.5048207e+00   5.5742778e+00   5.7807695e+00   5.7832177e+00   5.8858719e+00   5.9361885e+00   5.9790663e+00   5.9689592e+00   5.8485910e+00   5.7265021e+00   5.6591099e+00   5.6511187e+00   5.6699667e+00   5.6523804e+00   5.6214180e+00   5.6150568e+00   5.6099400e+00   5.5989509e+00   5.5842484e+00   5.5622214e+00   5.8445183e+00   6.6211796e+00   6.4790475e+00   5.8893406e+00   5.4040571e+00   5.1823277e+00   4.9285050e+00   4.6086168e+00   4.6519616e+00   4.4575194e+00   4.1414287e+00   4.4135424e+00   4.4965179e+00   4.5143538e+00   4.6655825e+00   4.6009414e+00   4.6553717e+00   4.9618575e+00   4.9761510e+00   4.8466296e+00   4.9551768e+00   5.0857502e+00   4.8534309e+00   4.6468558e+00   4.4071579e+00   4.0070767e+00   3.7552743e+00   3.6469935e+00   3.5287186e+00   3.4227062e+00   3.3429175e+00   3.2600484e+00   3.1983586e+00   3.1491656e+00   3.0927520e+00   3.0617930e+00   3.0384649e+00   2.9915697e+00   2.9685028e+00   2.9404371e+00   2.8914851e+00   2.8710607e+00   2.8502627e+00   2.8233030e+00   2.7752866e+00   2.7398069e+00   2.7155535e+00   2.6814773e+00   2.6415156e+00   2.6325689e+00   2.6157343e+00   2.6069692e+00   2.5961925e+00   2.6012680e+00   2.6165254e+00   2.6178250e+00   2.6417405e+00   2.6425707e+00   2.6658386e+00   2.6822445e+00   2.6789536e+00   2.7193387e+00   2.7322032e+00   2.7404057e+00   2.7407907e+00   2.7574376e+00   2.7876392e+00   2.7585368e+00   2.7088960e+00   2.6588249e+00   2.5814033e+00   2.5898243e+00   2.4965518e+00   2.3594306e+00   2.3052412e+00   2.2962787e+00   2.1714433e+00   2.1046631e+00   2.0321392e+00   1.9523153e+00   1.9051619e+00   1.8798141e+00   1.8586328e+00   1.8281241e+00   1.8219735e+00   1.8084910e+00   1.8101955e+00   1.8086840e+00   1.7648348e+00   1.7506010e+00   1.7136126e+00   1.7300728e+00   1.7013869e+00   1.6821703e+00   1.7290599e+00   1.7302514e+00   1.7094613e+00   1.7080187e+00   1.7618205e+00   1.7442369e+00   1.7839906e+00   1.7549809e+00   1.7624181e+00   1.7405885e+00   1.7459664e+00   1.7195475e+00   1.7166548e+00   1.6928256e+00   1.6837904e+00   1.6864995e+00   1.6553640e+00   1.6631428e+00   1.6609594e+00   1.6586561e+00   1.6513750e+00   1.6656991e+00   1.6590378e+00   1.6382869e+00   1.6508951e+00   1.6584847e+00   1.6691755e+00   1.6653389e+00   1.6788428e+00   1.6525950e+00   1.6062722e+00   1.5812659e+00   1.5755362e+00
1.3676898e+01   1.3624031e+01   1.3542878e+01   1.3272041e+01   1.2652593e+01   1.1901328e+01   1.1811902e+01   1.1595809e+01   1.0544287e+01   9.9454282e+00   9.5355468e+00   8.8965274e+00   8.3109803e+00   8.2985420e+00   8.4066629e+00   8.2191247e+00   8.0200416e+00   8.1070112e+00   8.2200306e+00   8.3188741e+00   8.3218143e+00   8.3779769e+00   8.3680542e+00   8.6608295e+00   8.5621105e+00   8.3731286e+00   8.2243473e+00   8.0219510e+00   7.6800752e+00   7.3305325e+00   6.9731163e+00   6.5937373e+00   6.1332757e+00   5.8176621e+00   5.7547040e+00   5.6936473e+00   5.7078927e+00   5.6690008e+00   5.5271590e+00   5.4959302e+00   5.4972937e+00   5.6174368e+00   5.5913476e+00   5.7880780e+00   5.8945860e+00   5.8845346e+00   5.8308057e+00   5.7191283e+00   5.6374934e+00   5.6283604e+00   5.6295670e+00   5.6464465e+00   5.6197060e+00   5.5906814e+00   5.5670927e+00   5.6048889e+00   5.5701110e+00   5.5422757e+00   5.6558526e+00   6.1914175e+00   6.5369117e+00   6.0133421e+00   5.6152107e+00   5.2056096e+00   5.0116735e+00   4.7626585e+00   4.4170487e+00   4.3502308e+00   4.2687846e+00   4.0103468e+00   4.1579204e+00   4.2459535e+00   4.4515783e+00   4.4546610e+00   4.6106600e+00   4.8776602e+00   4.9542719e+00   4.9664740e+00   4.8627008e+00   4.7894917e+00   5.0690641e+00   4.6774529e+00   4.2255049e+00   4.0270946e+00   3.7957543e+00   3.6910110e+00   3.5486873e+00   3.4669237e+00   3.3717207e+00   3.2844800e+00   3.2134781e+00   3.1627781e+00   3.1082959e+00   3.0708244e+00   3.0442189e+00   3.0047293e+00   2.9714207e+00   2.9399891e+00   2.9078380e+00   2.8770166e+00   2.8539205e+00   2.8326649e+00   2.7910908e+00   2.7505406e+00   2.7142046e+00   2.6992842e+00   2.6682166e+00   2.6374940e+00   2.6226522e+00   2.6185914e+00   2.6168444e+00   2.6198506e+00   2.5990650e+00   2.6268409e+00   2.6380312e+00   2.6486343e+00   2.6832784e+00   2.6914286e+00   2.7083822e+00   2.7147067e+00   2.7549999e+00   2.7883636e+00   2.7700663e+00   2.7723069e+00   2.7733280e+00   2.7720201e+00   2.7435370e+00   2.6371710e+00   2.6078675e+00   2.5123356e+00   2.4893196e+00   2.3906835e+00   2.2955562e+00   2.2226421e+00   2.1844502e+00   2.0686898e+00   2.0229220e+00   1.9176974e+00   1.8402155e+00   1.8832905e+00   1.8157823e+00   1.8217195e+00   1.7981343e+00   1.7995828e+00   1.7849622e+00   1.7706413e+00   1.7491282e+00   1.7473418e+00   1.7365642e+00   1.7376325e+00   1.7407990e+00   1.7265387e+00   1.7436503e+00   1.7441738e+00   1.7497187e+00   1.7285706e+00   1.7827449e+00   1.7935392e+00   1.7990608e+00   1.7854959e+00   1.7787069e+00   1.7589925e+00   1.7259192e+00   1.7238265e+00   1.7042194e+00   1.6929245e+00   1.6814332e+00   1.6782961e+00   1.6662885e+00   1.6580014e+00   1.6595246e+00   1.6651400e+00   1.6604661e+00   1.6587279e+00   1.6621680e+00   1.6660811e+00   1.6256210e+00   1.6099936e+00   1.6242763e+00   1.6377672e+00   1.6495858e+00   1.6610493e+00   1.6582748e+00   1.6092865e+00   1.5881861e+00   1.5701826e+00
1.4191137e+01   1.4089927e+01   1.3822022e+01   1.3506914e+01   1.2957571e+01   1.2098970e+01   1.2265685e+01   1.1942337e+01   1.1005402e+01   9.9301698e+00   9.7744129e+00   8.6974497e+00   8.4511301e+00   8.3049516e+00   8.4356848e+00   8.1341939e+00   7.9030623e+00   7.9961043e+00   8.0551107e+00   8.0561589e+00   8.2534099e+00   8.2385557e+00   8.1480887e+00   8.2740243e+00   8.3110021e+00   8.1432932e+00   7.8860889e+00   7.7996050e+00   7.4954013e+00   7.2245212e+00   6.9678539e+00   6.6353857e+00   6.1270031e+00   5.7974196e+00   5.6279257e+00   5.6243455e+00   5.6584063e+00   5.6409645e+00   5.5336657e+00   5.4856721e+00   5.4968006e+00   5.5112384e+00   5.5301925e+00   5.6832319e+00   5.7290224e+00   5.7281131e+00   5.7413963e+00   5.6133555e+00   5.6102774e+00   5.6292177e+00   5.6097452e+00   5.5977750e+00   5.5947113e+00   5.5670999e+00   5.5510936e+00   5.5726832e+00   5.5454835e+00   5.5268499e+00   5.7957126e+00   6.1132402e+00   6.4060632e+00   5.9748601e+00   5.4736009e+00   5.1787267e+00   4.8167035e+00   4.5309953e+00   4.2865062e+00   4.1823810e+00   4.0842110e+00   4.0318875e+00   4.0023216e+00   4.1809958e+00   4.4173654e+00   4.4554060e+00   4.5057208e+00   4.6062567e+00   4.7553888e+00   4.8056938e+00   4.8615828e+00   4.7030676e+00   4.8929418e+00   4.3406411e+00   4.0851965e+00   3.8990723e+00   3.7754297e+00   3.6248180e+00   3.5250862e+00   3.3823452e+00   3.3310125e+00   3.2318071e+00   3.1769780e+00   3.1247563e+00   3.0745134e+00   3.0336832e+00   3.0133859e+00   2.9672647e+00   2.9473263e+00   2.9184444e+00   2.8983268e+00   2.8597334e+00   2.8502905e+00   2.7930764e+00   2.7738185e+00   2.7422492e+00   2.7022800e+00   2.6812852e+00   2.6464790e+00   2.6419113e+00   2.6213758e+00   2.6124539e+00   2.6275451e+00   2.6191999e+00   2.6121818e+00   2.6292111e+00   2.6591212e+00   2.6636968e+00   2.7034650e+00   2.7114810e+00   2.7229415e+00   2.7189735e+00   2.7589407e+00   2.7443048e+00   2.7723186e+00   2.7505269e+00   2.7347185e+00   2.7076532e+00   2.6754556e+00   2.6160019e+00   2.5373737e+00   2.4176295e+00   2.4051149e+00   2.3277649e+00   2.2153760e+00   2.1724315e+00   2.0855445e+00   2.0246495e+00   1.9589316e+00   1.8750480e+00   1.8332274e+00   1.7740467e+00   1.7891694e+00   1.7691435e+00   1.7660140e+00   1.7501585e+00   1.7372885e+00   1.7344941e+00   1.7366634e+00   1.7297774e+00   1.7324460e+00   1.7680669e+00   1.7724592e+00   1.7558855e+00   1.7588772e+00   1.7843605e+00   1.7726018e+00   1.7630190e+00   1.8111645e+00   1.7973501e+00   1.8173821e+00   1.7726716e+00   1.7695011e+00   1.7488645e+00   1.7168023e+00   1.7004363e+00   1.6815446e+00   1.6843815e+00   1.6698941e+00   1.6706107e+00   1.6577661e+00   1.6674686e+00   1.6682250e+00   1.6422693e+00   1.6503153e+00   1.6419824e+00   1.6726482e+00   1.6450318e+00   1.6254404e+00   1.6003773e+00   1.6077192e+00   1.6299297e+00   1.6327871e+00   1.6509436e+00   1.6578328e+00   1.6224702e+00   1.6000000e+00   1.5944820e+00
1.4709963e+01   1.4677103e+01   1.4107898e+01   1.3907120e+01   1.3281964e+01   1.2875312e+01   1.2840453e+01   1.2332326e+01   1.1649411e+01   1.0674733e+01   1.0253501e+01   9.7737985e+00   8.7402841e+00   8.6388697e+00   8.5903146e+00   8.1361803e+00   7.9255558e+00   7.8262860e+00   7.7364681e+00   7.8093095e+00   8.0192379e+00   8.0636191e+00   8.0042551e+00   7.9848861e+00   8.0574525e+00   7.9085882e+00   7.8183819e+00   7.6339677e+00   7.5011720e+00   7.2042486e+00   6.9315812e+00   6.6578084e+00   6.1285603e+00   5.7543245e+00   5.6359602e+00   5.5896119e+00   5.6224255e+00   5.6024330e+00   5.5159561e+00   5.4826633e+00   5.4958350e+00   5.4819051e+00   5.4872588e+00   5.5539246e+00   5.5927261e+00   5.6248610e+00   5.6293958e+00   5.5872206e+00   5.5938767e+00   5.6232599e+00   5.5783796e+00   5.5733566e+00   5.5818032e+00   5.5629378e+00   5.5416890e+00   5.5322822e+00   5.5418883e+00   5.5751160e+00   5.8542879e+00   6.2592564e+00   6.3547324e+00   6.0355987e+00   5.4477155e+00   5.2412024e+00   4.6856939e+00   4.3840838e+00   4.2418386e+00   4.0550857e+00   4.0738071e+00   4.1075174e+00   4.0275239e+00   4.0522286e+00   4.3459846e+00   4.5168089e+00   4.5291674e+00   4.4175640e+00   4.4696360e+00   4.7574667e+00   4.8442181e+00   4.7197030e+00   4.5189496e+00   4.0886493e+00   3.9394725e+00   3.8775433e+00   3.7609499e+00   3.5323591e+00   3.4164858e+00   3.3290707e+00   3.2680414e+00   3.1892707e+00   3.1441098e+00   3.0762417e+00   3.0228831e+00   3.0079212e+00   2.9855160e+00   2.9468971e+00   2.9188431e+00   2.8853605e+00   2.8678415e+00   2.8278467e+00   2.8046648e+00   2.7743457e+00   2.7593781e+00   2.7214273e+00   2.6785115e+00   2.6473153e+00   2.6414251e+00   2.6361261e+00   2.6189315e+00   2.6258623e+00   2.6319282e+00   2.6367995e+00   2.6420178e+00   2.6764626e+00   2.6809222e+00   2.7004528e+00   2.7342640e+00   2.7394701e+00   2.7344763e+00   2.7571067e+00   2.7584355e+00   2.7719552e+00   2.7633821e+00   2.7138026e+00   2.7013097e+00   2.6707735e+00   2.6156983e+00   2.5529305e+00   2.4269446e+00   2.3997507e+00   2.3193871e+00   2.3141057e+00   2.1958210e+00   2.1056840e+00   2.0205467e+00   1.9366453e+00   1.9094631e+00   1.8017368e+00   1.7749124e+00   1.7453761e+00   1.7645136e+00   1.7437984e+00   1.7315222e+00   1.7142223e+00   1.6945658e+00   1.7075701e+00   1.7106679e+00   1.7125280e+00   1.7121257e+00   1.7803420e+00   1.7653280e+00   1.7889994e+00   1.7894684e+00   1.8137366e+00   1.7803279e+00   1.8190731e+00   1.8150092e+00   1.7989809e+00   1.7920162e+00   1.7795907e+00   1.7627285e+00   1.7259141e+00   1.6849277e+00   1.6800913e+00   1.6658519e+00   1.6796374e+00   1.6749638e+00   1.6746630e+00   1.6565164e+00   1.6775648e+00   1.6711926e+00   1.6527317e+00   1.6524716e+00   1.6611730e+00   1.6498771e+00   1.6309957e+00   1.6060963e+00   1.5904952e+00   1.6001764e+00   1.5968732e+00   1.6401638e+00   1.6474019e+00   1.6636221e+00   1.6367290e+00   1.6082339e+00   1.5978125e+00
