1.5000000e+02   1.5000000e+02   1.5000000e+02   1.5000000e+02   1.5000000e+02   1.5000000e+02   1.5000000e+02   1.5000000e+02   1.5000000e+02   1.5000000e+02   1.5000000e+02   1.5000000e+02   1.5000000e+02   1.5000000e+02   1.5000000e+02   1.5000000e+02   1.5000000e+02   1.5000000e+02   1.5000000e+02   1.5000000e+02   1.5000000e+02   1.5000000e+02   1.5000000e+02   1.5000000e+02   1.5000000e+02   1.5000000e+02   1.5000000e+02   1.5000000e+02   1.5000000e+02   1.5000000e+02   1.5000000e+02   1.4624587e+02   1.4249174e+02   1.3695186e+02   1.3141197e+02   1.1995429e+02   1.0849661e+02   1.0185074e+02   9.5204864e+01   9.1013729e+01   8.6822593e+01   8.1790714e+01   7.6758834e+01   7.1462718e+01   6.6166603e+01   6.0710586e+01   5.5254569e+01   5.1185497e+01   4.7116424e+01   4.2529048e+01   3.7941673e+01   3.4530641e+01   3.1119609e+01   2.5423124e+01   1.9726638e+01   1.5038471e+01   1.0350303e+01   5.6545157e+00   9.5872828e-01   2.3163072e-01  -4.9546683e-01  -2.7240770e+00  -4.9526872e+00  -7.1812973e+00  -9.4099075e+00  -1.1067417e+01  -1.2724926e+01  -1.4486834e+01  -1.6248742e+01  -1.8057433e+01  -1.9866124e+01  -2.1762852e+01  -2.3659581e+01  -2.5935656e+01  -2.8211730e+01  -2.9349768e+01  -3.0487805e+01  -3.0487805e+01  -3.0487805e+01  -3.2284146e+01  -3.4080488e+01  -3.5876829e+01  -3.7673171e+01  -3.9212892e+01  -4.0752613e+01  -4.2035714e+01  -4.3318815e+01  -4.4601916e+01  -4.5885017e+01  -4.6543457e+01  -4.7201897e+01  -4.7503388e+01  -4.7804878e+01  -4.9247967e+01  -5.0691057e+01  -5.1953760e+01  -5.3216463e+01  -5.3216463e+01  -5.3216463e+01  -5.4065041e+01  -5.4913618e+01  -5.8307927e+01  -6.1702236e+01  -6.5096545e+01  -6.8490854e+01  -7.1885163e+01  -7.5279472e+01  -7.8673780e+01  -8.2068089e+01  -8.4318705e+01  -8.6569320e+01  -9.0393281e+01  -9.4217243e+01  -9.9188883e+01  -1.0416052e+02  -1.0706701e+02  -1.0997349e+02  -1.1219159e+02  -1.1440969e+02  -1.1662778e+02  -1.1884588e+02  -1.2106398e+02  -1.2328208e+02  -1.2550018e+02  -1.2771828e+02  -1.2993637e+02  -1.3215447e+02  -1.3299966e+02  -1.3384485e+02  -1.3469004e+02  -1.3553523e+02  -1.3638042e+02  -1.3722561e+02  -1.3784408e+02  -1.3846254e+02  -1.3908101e+02  -1.3969948e+02  -1.4074138e+02  -1.4178328e+02  -1.4303690e+02  -1.4429051e+02  -1.4554413e+02  -1.4679775e+02  -1.4805136e+02  -1.4930498e+02  -1.5055860e+02  -1.5181222e+02  -1.5134388e+02  -1.5087555e+02  -1.4853033e+02  -1.4618512e+02  -1.4388273e+02  -1.4158035e+02  -1.3949215e+02  -1.3740394e+02  -1.3531574e+02  -1.3322753e+02  -1.3113933e+02  -1.2905112e+02  -1.2696291e+02  -1.2487471e+02  -1.2278650e+02  -1.2069830e+02  -1.1891783e+02  -1.1713736e+02  -1.1553273e+02  -1.1392811e+02  -1.1232349e+02  -1.1071887e+02  -1.0911425e+02  -1.0750963e+02  -1.0558408e+02  -1.0365854e+02  -1.0162602e+02  -9.9593496e+01  -9.7560976e+01  -9.5528455e+01  -9.3495935e+01  -9.1463415e+01  -8.7108014e+01  -8.2752613e+01  -7.8397213e+01  -7.4041812e+01  -6.9686411e+01  -6.5331010e+01  -6.0975610e+01
1.5000000e+02   1.5000000e+02   1.5000000e+02   1.5000000e+02   1.5000000e+02   1.5000000e+02   1.5000000e+02   1.5000000e+02   1.5000000e+02   1.5000000e+02   1.5000000e+02   1.5000000e+02   1.5000000e+02   1.5000000e+02   1.5000000e+02   1.5000000e+02   1.5000000e+02   1.5000000e+02   1.5000000e+02   1.5000000e+02   1.5000000e+02   1.5000000e+02   1.5000000e+02   1.5000000e+02   1.5000000e+02   1.5000000e+02   1.5000000e+02   1.5000000e+02   1.5000000e+02   1.5000000e+02   1.5000000e+02   1.4691195e+02   1.4382390e+02   1.3828925e+02   1.3275459e+02   1.2263122e+02   1.1250784e+02   1.0491659e+02   9.7325347e+01   9.1155546e+01   8.4985744e+01   8.0183706e+01   7.5381668e+01   6.9370281e+01   6.3358894e+01   5.8144790e+01   5.2930686e+01   4.8956037e+01   4.4981388e+01   4.0634446e+01   3.6287504e+01   3.2551882e+01   2.8816261e+01   2.3456878e+01   1.8097496e+01   1.3932518e+01   9.7675414e+00   5.4164552e+00   1.0653691e+00  -1.2117587e-01  -1.3077208e+00  -3.5363310e+00  -5.7649412e+00  -7.9935513e+00  -1.0222162e+01  -1.2165221e+01  -1.4108281e+01  -1.6103540e+01  -1.8098799e+01  -1.9857999e+01  -2.1617199e+01  -2.3460306e+01  -2.5303413e+01  -2.7326590e+01  -2.9349768e+01  -3.0816957e+01  -3.2284146e+01  -3.3182317e+01  -3.4080488e+01  -3.5876829e+01  -3.7673171e+01  -3.9469512e+01  -4.1265854e+01  -4.2933885e+01  -4.4601916e+01  -4.5885017e+01  -4.7168118e+01  -4.8451220e+01  -4.9734321e+01  -5.0481998e+01  -5.1229675e+01  -5.1531165e+01  -5.1832656e+01  -5.2704946e+01  -5.3577236e+01  -5.4930132e+01  -5.6283028e+01  -5.6643801e+01  -5.7004573e+01  -5.7428862e+01  -5.7853150e+01  -6.1247459e+01  -6.4641768e+01  -6.8036077e+01  -7.1430386e+01  -7.4824695e+01  -7.8219004e+01  -8.1613313e+01  -8.5007622e+01  -8.7830084e+01  -9.0652546e+01  -9.4261681e+01  -9.7870817e+01  -1.0146569e+02  -1.0506055e+02  -1.0762285e+02  -1.1018514e+02  -1.1240323e+02  -1.1462133e+02  -1.1683943e+02  -1.1905753e+02  -1.2127563e+02  -1.2349373e+02  -1.2571182e+02  -1.2792992e+02  -1.3014802e+02  -1.3236612e+02  -1.3366894e+02  -1.3497177e+02  -1.3581696e+02  -1.3666215e+02  -1.3750734e+02  -1.3835253e+02  -1.3908436e+02  -1.3981619e+02  -1.4051023e+02  -1.4120427e+02  -1.4203445e+02  -1.4286464e+02  -1.4404768e+02  -1.4523073e+02  -1.4648434e+02  -1.4773796e+02  -1.4899158e+02  -1.5024519e+02  -1.5118541e+02  -1.5212562e+02  -1.5110971e+02  -1.5009381e+02  -1.4774859e+02  -1.4540338e+02  -1.4307958e+02  -1.4075578e+02  -1.3853907e+02  -1.3632236e+02  -1.3414848e+02  -1.3197461e+02  -1.2988640e+02  -1.2779820e+02  -1.2570999e+02  -1.2362178e+02  -1.2153358e+02  -1.1944537e+02  -1.1751103e+02  -1.1557670e+02  -1.1395009e+02  -1.1232349e+02  -1.1071887e+02  -1.0911425e+02  -1.0750963e+02  -1.0590501e+02  -1.0413992e+02  -1.0237484e+02  -1.0047604e+02  -9.8577236e+01  -9.6544715e+01  -9.4512195e+01  -9.1294038e+01  -8.8075881e+01  -8.2510647e+01  -7.6945412e+01  -7.3073945e+01  -6.9202478e+01  -6.5089044e+01  -6.0975610e+01  -5.6620209e+01
1.5000000e+02   1.5000000e+02   1.5000000e+02   1.5000000e+02   1.5000000e+02   1.5000000e+02   1.5000000e+02   1.5000000e+02   1.5000000e+02   1.5000000e+02   1.5000000e+02   1.5000000e+02   1.5000000e+02   1.5000000e+02   1.5000000e+02   1.5000000e+02   1.5000000e+02   1.5000000e+02   1.5000000e+02   1.5000000e+02   1.5000000e+02   1.5000000e+02   1.5000000e+02   1.5000000e+02   1.5000000e+02   1.5000000e+02   1.5000000e+02   1.5000000e+02   1.5000000e+02   1.5000000e+02   1.5000000e+02   1.4757803e+02   1.4515605e+02   1.3962663e+02   1.3409721e+02   1.2530814e+02   1.1651907e+02   1.0798245e+02   9.9445831e+01   9.1297363e+01   8.3148895e+01   7.8576698e+01   7.4004501e+01   6.7277843e+01   6.0551185e+01   5.5578994e+01   5.0606803e+01   4.6726577e+01   4.2846351e+01   3.8739843e+01   3.4633335e+01   3.0573123e+01   2.6512912e+01   2.1490632e+01   1.6468353e+01   1.2826566e+01   9.1847796e+00   5.1783948e+00   1.1720099e+00  -4.7398246e-01  -2.1199748e+00  -4.3485850e+00  -6.5771952e+00  -8.8058053e+00  -1.1034416e+01  -1.3263026e+01  -1.5491636e+01  -1.7720246e+01  -1.9948856e+01  -2.1658565e+01  -2.3368273e+01  -2.5157759e+01  -2.6947244e+01  -2.8717525e+01  -3.0487805e+01  -3.2284146e+01  -3.4080488e+01  -3.5876829e+01  -3.7673171e+01  -3.9469512e+01  -4.1265854e+01  -4.3062195e+01  -4.4858537e+01  -4.6654878e+01  -4.8451220e+01  -4.9734321e+01  -5.1017422e+01  -5.2300523e+01  -5.3583624e+01  -5.4420538e+01  -5.5257453e+01  -5.5558943e+01  -5.5860434e+01  -5.6161924e+01  -5.6463415e+01  -5.7906504e+01  -5.9349593e+01  -6.0071138e+01  -6.0792683e+01  -6.0792683e+01  -6.0792683e+01  -6.4186992e+01  -6.7581301e+01  -7.0975610e+01  -7.4369919e+01  -7.7764228e+01  -8.1158537e+01  -8.4552846e+01  -8.7947154e+01  -9.1341463e+01  -9.4735772e+01  -9.8130081e+01  -1.0152439e+02  -1.0374249e+02  -1.0596059e+02  -1.0817869e+02  -1.1039678e+02  -1.1261488e+02  -1.1483298e+02  -1.1705108e+02  -1.1926918e+02  -1.2148727e+02  -1.2370537e+02  -1.2592347e+02  -1.2814157e+02  -1.3035967e+02  -1.3257777e+02  -1.3433823e+02  -1.3609869e+02  -1.3694388e+02  -1.3778907e+02  -1.3863426e+02  -1.3947945e+02  -1.4032464e+02  -1.4116983e+02  -1.4193944e+02  -1.4270906e+02  -1.4332753e+02  -1.4394599e+02  -1.4505847e+02  -1.4617094e+02  -1.4742456e+02  -1.4867817e+02  -1.4993179e+02  -1.5118541e+02  -1.5181222e+02  -1.5243902e+02  -1.5087555e+02  -1.4931207e+02  -1.4696685e+02  -1.4462164e+02  -1.4227642e+02  -1.3993121e+02  -1.3758599e+02  -1.3524078e+02  -1.3298123e+02  -1.3072168e+02  -1.2863348e+02  -1.2654527e+02  -1.2445707e+02  -1.2236886e+02  -1.2028065e+02  -1.1819245e+02  -1.1610424e+02  -1.1401604e+02  -1.1236745e+02  -1.1071887e+02  -1.0911425e+02  -1.0750963e+02  -1.0590501e+02  -1.0430039e+02  -1.0269576e+02  -1.0109114e+02  -9.9326059e+01  -9.7560976e+01  -9.5528455e+01  -9.3495935e+01  -8.9092141e+01  -8.4688347e+01  -7.7913279e+01  -7.1138211e+01  -6.7750678e+01  -6.4363144e+01  -6.0491676e+01  -5.6620209e+01  -5.2264808e+01
1.5000000e+02   1.5000000e+02   1.5000000e+02   1.5000000e+02   1.5000000e+02   1.5000000e+02   1.5000000e+02   1.5000000e+02   1.5000000e+02   1.5000000e+02   1.5000000e+02   1.5000000e+02   1.5000000e+02   1.5000000e+02   1.5000000e+02   1.5000000e+02   1.5000000e+02   1.5000000e+02   1.5000000e+02   1.5000000e+02   1.5000000e+02   1.5000000e+02   1.5000000e+02   1.5000000e+02   1.5000000e+02   1.5000000e+02   1.5000000e+02   1.5000000e+02   1.5000000e+02   1.5000000e+02   1.5000000e+02   1.4538170e+02   1.4076340e+02   1.3525468e+02   1.2974596e+02   1.2178736e+02   1.1382877e+02   1.0621365e+02   9.8598533e+01   9.1504083e+01   8.4409633e+01   7.8933788e+01   7.3457942e+01   6.6428436e+01   5.9398929e+01   5.4497743e+01   4.9596557e+01   4.5194938e+01   4.0793319e+01   3.7552194e+01   3.4311069e+01   3.0104446e+01   2.5897823e+01   2.1110903e+01   1.6323984e+01   1.2540692e+01   8.7574000e+00   4.8498869e+00   9.4237372e-01  -9.9492755e-01  -2.9322288e+00  -5.1608390e+00  -7.3894492e+00  -9.6180593e+00  -1.1846670e+01  -1.4075280e+01  -1.6303890e+01  -1.8532500e+01  -2.0761110e+01  -2.2730270e+01  -2.4699429e+01  -2.6708477e+01  -2.8717525e+01  -3.0923504e+01  -3.3129484e+01  -3.5348494e+01  -3.7567504e+01  -3.9416679e+01  -4.1265854e+01  -4.3062195e+01  -4.4858537e+01  -4.6654878e+01  -4.8451220e+01  -5.0247561e+01  -5.2043902e+01  -5.3455314e+01  -5.4866725e+01  -5.6149826e+01  -5.7432927e+01  -5.8359079e+01  -5.9285230e+01  -5.9586721e+01  -5.9888211e+01  -6.0189702e+01  -6.0491192e+01  -6.1363482e+01  -6.2235772e+01  -6.3318089e+01  -6.4400407e+01  -6.4490600e+01  -6.4580793e+01  -6.7550813e+01  -7.0520833e+01  -7.3915142e+01  -7.7309451e+01  -8.0703760e+01  -8.4098069e+01  -8.7492378e+01  -9.0886687e+01  -9.4118441e+01  -9.7350196e+01  -1.0009429e+02  -1.0283838e+02  -1.0478792e+02  -1.0673747e+02  -1.0870619e+02  -1.1067490e+02  -1.1285977e+02  -1.1504463e+02  -1.1726273e+02  -1.1948082e+02  -1.2169892e+02  -1.2391702e+02  -1.2613512e+02  -1.2835322e+02  -1.3057131e+02  -1.3278941e+02  -1.3477869e+02  -1.3676797e+02  -1.3784198e+02  -1.3891599e+02  -1.3976118e+02  -1.4060637e+02  -1.4145156e+02  -1.4229675e+02  -1.4310415e+02  -1.4391155e+02  -1.4464338e+02  -1.4537521e+02  -1.4627847e+02  -1.4718172e+02  -1.4840005e+02  -1.4961839e+02  -1.5071530e+02  -1.5181222e+02  -1.5212562e+02  -1.5243902e+02  -1.5048468e+02  -1.4853033e+02  -1.4618512e+02  -1.4383990e+02  -1.4149468e+02  -1.3914947e+02  -1.3680425e+02  -1.3445904e+02  -1.3215666e+02  -1.2985428e+02  -1.2763756e+02  -1.2542085e+02  -1.2326840e+02  -1.2111594e+02  -1.1902773e+02  -1.1693953e+02  -1.1485132e+02  -1.1276311e+02  -1.1093868e+02  -1.0911425e+02  -1.0750963e+02  -1.0590501e+02  -1.0430039e+02  -1.0269576e+02  -1.0109114e+02  -9.9486521e+01  -9.7801669e+01  -9.6116816e+01  -9.4298246e+01  -9.2479675e+01  -8.6890244e+01  -8.1300813e+01  -7.4525745e+01  -6.7750678e+01  -6.2669377e+01  -5.7588076e+01  -5.3958575e+01  -5.0329075e+01  -4.6457607e+01
1.5000000e+02   1.5000000e+02   1.5000000e+02   1.5000000e+02   1.5000000e+02   1.5000000e+02   1.5000000e+02   1.5000000e+02   1.5000000e+02   1.5000000e+02   1.5000000e+02   1.5000000e+02   1.5000000e+02   1.5000000e+02   1.5000000e+02   1.5000000e+02   1.5000000e+02   1.5000000e+02   1.5000000e+02   1.5000000e+02   1.5000000e+02   1.5000000e+02   1.5000000e+02   1.5000000e+02   1.5000000e+02   1.5000000e+02   1.5000000e+02   1.5000000e+02   1.5000000e+02   1.5000000e+02   1.5000000e+02   1.4318537e+02   1.3637074e+02   1.3088272e+02   1.2539470e+02   1.1826659e+02   1.1113847e+02   1.0444485e+02   9.7751235e+01   9.1710803e+01   8.5670371e+01   7.9290878e+01   7.2911384e+01   6.5579029e+01   5.8246673e+01   5.3416492e+01   4.8586311e+01   4.3663299e+01   3.8740287e+01   3.6364545e+01   3.3988803e+01   2.9635768e+01   2.5282733e+01   2.0731174e+01   1.6179615e+01   1.2254817e+01   8.3300204e+00   4.5213790e+00   7.1273752e-01  -1.5158726e+00  -3.7444828e+00  -5.9730930e+00  -8.2017032e+00  -1.0430313e+01  -1.2658924e+01  -1.4887534e+01  -1.7116144e+01  -1.9344754e+01  -2.1573364e+01  -2.3801974e+01  -2.6030585e+01  -2.8259195e+01  -3.0487805e+01  -3.3129484e+01  -3.5771162e+01  -3.8412841e+01  -4.1054519e+01  -4.2956528e+01  -4.4858537e+01  -4.6654878e+01  -4.8451220e+01  -5.0247561e+01  -5.2043902e+01  -5.3840244e+01  -5.5636585e+01  -5.7176307e+01  -5.8716028e+01  -5.9999129e+01  -6.1282230e+01  -6.2297619e+01  -6.3313008e+01  -6.3614499e+01  -6.3915989e+01  -6.4217480e+01  -6.4518970e+01  -6.4820461e+01  -6.5121951e+01  -6.6565041e+01  -6.8008130e+01  -6.8188516e+01  -6.8368902e+01  -7.0914634e+01  -7.3460366e+01  -7.6854675e+01  -8.0248984e+01  -8.3643293e+01  -8.7037602e+01  -9.0431911e+01  -9.3826220e+01  -9.6895419e+01  -9.9964619e+01  -1.0205849e+02  -1.0415236e+02  -1.0583336e+02  -1.0751435e+02  -1.0923369e+02  -1.1095303e+02  -1.1310465e+02  -1.1525627e+02  -1.1747437e+02  -1.1969247e+02  -1.2191057e+02  -1.2412867e+02  -1.2634677e+02  -1.2856486e+02  -1.3078296e+02  -1.3300106e+02  -1.3521916e+02  -1.3743726e+02  -1.3874008e+02  -1.4004291e+02  -1.4088810e+02  -1.4173329e+02  -1.4257848e+02  -1.4342367e+02  -1.4426886e+02  -1.4511405e+02  -1.4595924e+02  -1.4680443e+02  -1.4749847e+02  -1.4819251e+02  -1.4937555e+02  -1.5055860e+02  -1.5149881e+02  -1.5243902e+02  -1.5243902e+02  -1.5243902e+02  -1.5009381e+02  -1.4774859e+02  -1.4540338e+02  -1.4305816e+02  -1.4071295e+02  -1.3836773e+02  -1.3602251e+02  -1.3367730e+02  -1.3133208e+02  -1.2898687e+02  -1.2664165e+02  -1.2429644e+02  -1.2207972e+02  -1.1986301e+02  -1.1777481e+02  -1.1568660e+02  -1.1359840e+02  -1.1151019e+02  -1.0950991e+02  -1.0750963e+02  -1.0590501e+02  -1.0430039e+02  -1.0269576e+02  -1.0109114e+02  -9.9486521e+01  -9.7881900e+01  -9.6277279e+01  -9.4672657e+01  -9.3068036e+01  -9.1463415e+01  -8.4688347e+01  -7.7913279e+01  -7.1138211e+01  -6.4363144e+01  -5.7588076e+01  -5.0813008e+01  -4.7425474e+01  -4.4037940e+01  -4.0650407e+01
1.5000000e+02   1.5000000e+02   1.5000000e+02   1.5000000e+02   1.5000000e+02   1.5000000e+02   1.5000000e+02   1.5000000e+02   1.5000000e+02   1.5000000e+02   1.5000000e+02   1.5000000e+02   1.5000000e+02   1.5000000e+02   1.5000000e+02   1.5000000e+02   1.5000000e+02   1.5000000e+02   1.5000000e+02   1.5000000e+02   1.5000000e+02   1.5000000e+02   1.5000000e+02   1.5000000e+02   1.5000000e+02   1.5000000e+02   1.5000000e+02   1.5000000e+02   1.5000000e+02   1.5000000e+02   1.5000000e+02   1.4065836e+02   1.3131673e+02   1.2613079e+02   1.2094485e+02   1.1443037e+02   1.0791589e+02   1.0202218e+02   9.6128475e+01   9.0622871e+01   8.5117267e+01   7.9048969e+01   7.2980670e+01   6.6554737e+01   6.0128803e+01   5.4459108e+01   4.8789413e+01   4.3884326e+01   3.8979240e+01   3.5920518e+01   3.2861797e+01   2.8828148e+01   2.4794500e+01   2.0474102e+01   1.6153705e+01   1.1688446e+01   7.2231879e+00   3.9999023e+00   7.7661678e-01  -1.4519934e+00  -3.6806036e+00  -5.9092137e+00  -8.1378239e+00  -1.0366434e+01  -1.2595044e+01  -1.4823654e+01  -1.7052265e+01  -1.9280875e+01  -2.1509485e+01  -2.4027270e+01  -2.6545055e+01  -2.9284342e+01  -3.2023628e+01  -3.5078396e+01  -3.8133163e+01  -4.0914681e+01  -4.3696198e+01  -4.5968042e+01  -4.8239885e+01  -5.0141894e+01  -5.2043902e+01  -5.3840244e+01  -5.5636585e+01  -5.7432927e+01  -5.9229268e+01  -6.0897300e+01  -6.2565331e+01  -6.3848432e+01  -6.5131533e+01  -6.6236160e+01  -6.7340786e+01  -6.7642276e+01  -6.7943767e+01  -6.8245257e+01  -6.8546748e+01  -6.8848238e+01  -6.9149729e+01  -7.0022019e+01  -7.0894309e+01  -7.1525661e+01  -7.2157012e+01  -7.4278455e+01  -7.6399898e+01  -7.9794207e+01  -8.3188516e+01  -8.6582825e+01  -8.9977134e+01  -9.3046334e+01  -9.6115534e+01  -9.8697070e+01  -1.0127861e+02  -1.0337248e+02  -1.0546635e+02  -1.0723909e+02  -1.0901184e+02  -1.1062025e+02  -1.1222867e+02  -1.1408095e+02  -1.1593324e+02  -1.1798515e+02  -1.2003707e+02  -1.2218869e+02  -1.2434031e+02  -1.2655841e+02  -1.2877651e+02  -1.3099461e+02  -1.3321271e+02  -1.3543081e+02  -1.3764890e+02  -1.3940937e+02  -1.4116983e+02  -1.4201502e+02  -1.4286021e+02  -1.4370540e+02  -1.4455059e+02  -1.4539578e+02  -1.4624097e+02  -1.4708616e+02  -1.4793135e+02  -1.4870096e+02  -1.4947058e+02  -1.5048469e+02  -1.5149881e+02  -1.5196892e+02  -1.5243902e+02  -1.5142276e+02  -1.5040650e+02  -1.4829023e+02  -1.4617395e+02  -1.4405767e+02  -1.4194139e+02  -1.3967993e+02  -1.3741848e+02  -1.3515702e+02  -1.3289556e+02  -1.3055034e+02  -1.2820513e+02  -1.2585991e+02  -1.2351470e+02  -1.2123373e+02  -1.1895277e+02  -1.1673606e+02  -1.1451935e+02  -1.1238831e+02  -1.1025727e+02  -1.0821302e+02  -1.0616878e+02  -1.0443227e+02  -1.0269576e+02  -1.0109114e+02  -9.9486521e+01  -9.7881900e+01  -9.6277279e+01  -9.4672657e+01  -9.3068036e+01  -8.9725075e+01  -8.6382114e+01  -8.0453930e+01  -7.4525745e+01  -6.7750678e+01  -6.0975610e+01  -5.4200542e+01  -4.7425474e+01  -4.2344173e+01  -3.7262873e+01  -3.5569106e+01
1.5000000e+02   1.5000000e+02   1.5000000e+02   1.5000000e+02   1.5000000e+02   1.5000000e+02   1.5000000e+02   1.5000000e+02   1.5000000e+02   1.5000000e+02   1.5000000e+02   1.5000000e+02   1.5000000e+02   1.5000000e+02   1.5000000e+02   1.5000000e+02   1.5000000e+02   1.5000000e+02   1.5000000e+02   1.5000000e+02   1.5000000e+02   1.5000000e+02   1.5000000e+02   1.5000000e+02   1.5000000e+02   1.5000000e+02   1.5000000e+02   1.5000000e+02   1.5000000e+02   1.5000000e+02   1.5000000e+02   1.3813136e+02   1.2626271e+02   1.2137886e+02   1.1649501e+02   1.1059416e+02   1.0469331e+02   9.9599513e+01   9.4505714e+01   8.9534938e+01   8.4564163e+01   7.8807060e+01   7.3049957e+01   6.7530445e+01   6.2010932e+01   5.5501724e+01   4.8992515e+01   4.4105354e+01   3.9218193e+01   3.5476491e+01   3.1734790e+01   2.8020528e+01   2.4306266e+01   2.0217031e+01   1.6127796e+01   1.1122076e+01   6.1163554e+00   3.4784257e+00   8.4049603e-01  -1.3881141e+00  -3.6167243e+00  -5.8453345e+00  -8.0739447e+00  -1.0302555e+01  -1.2531165e+01  -1.4759775e+01  -1.6988385e+01  -1.9216996e+01  -2.1445606e+01  -2.4252566e+01  -2.7059526e+01  -3.0309489e+01  -3.3559451e+01  -3.7027308e+01  -4.0495164e+01  -4.3416520e+01  -4.6337877e+01  -4.8979555e+01  -5.1621234e+01  -5.3628910e+01  -5.5636585e+01  -5.7432927e+01  -5.9229268e+01  -6.1025610e+01  -6.2821951e+01  -6.4618293e+01  -6.6414634e+01  -6.7697735e+01  -6.8980836e+01  -7.0174700e+01  -7.1368564e+01  -7.1670054e+01  -7.1971545e+01  -7.2273035e+01  -7.2574526e+01  -7.2876016e+01  -7.3177507e+01  -7.3478997e+01  -7.3780488e+01  -7.4862805e+01  -7.5945122e+01  -7.7642276e+01  -7.9339431e+01  -8.2733740e+01  -8.6128049e+01  -8.9522358e+01  -9.2916667e+01  -9.5660757e+01  -9.8404848e+01  -1.0049872e+02  -1.0259259e+02  -1.0468646e+02  -1.0678034e+02  -1.0864483e+02  -1.1050933e+02  -1.1200681e+02  -1.1350430e+02  -1.1505726e+02  -1.1661021e+02  -1.1849593e+02  -1.2038166e+02  -1.2246681e+02  -1.2455196e+02  -1.2677006e+02  -1.2898816e+02  -1.3120626e+02  -1.3342435e+02  -1.3564245e+02  -1.3786055e+02  -1.4007865e+02  -1.4229675e+02  -1.4314194e+02  -1.4398713e+02  -1.4483232e+02  -1.4567751e+02  -1.4652270e+02  -1.4736789e+02  -1.4821308e+02  -1.4905827e+02  -1.4990346e+02  -1.5074864e+02  -1.5159383e+02  -1.5243902e+02  -1.5243902e+02  -1.5243902e+02  -1.5040650e+02  -1.4837398e+02  -1.4648664e+02  -1.4459930e+02  -1.4271196e+02  -1.4082462e+02  -1.3864692e+02  -1.3646922e+02  -1.3429152e+02  -1.3211382e+02  -1.2976861e+02  -1.2742339e+02  -1.2507817e+02  -1.2273296e+02  -1.2038774e+02  -1.1804253e+02  -1.1569731e+02  -1.1335210e+02  -1.1117822e+02  -1.0900434e+02  -1.0691614e+02  -1.0482793e+02  -1.0295954e+02  -1.0109114e+02  -9.9486521e+01  -9.7881900e+01  -9.6277279e+01  -9.4672657e+01  -9.3068036e+01  -9.1463415e+01  -8.6382114e+01  -8.1300813e+01  -7.6219512e+01  -7.1138211e+01  -6.4363144e+01  -5.7588076e+01  -5.0813008e+01  -4.4037940e+01  -3.7262873e+01  -3.0487805e+01  -3.0487805e+01
1.5000000e+02   1.5000000e+02   1.5000000e+02   1.5000000e+02   1.5000000e+02   1.5000000e+02   1.5000000e+02   1.5000000e+02   1.5000000e+02   1.5000000e+02   1.5000000e+02   1.5000000e+02   1.5000000e+02   1.5000000e+02   1.5000000e+02   1.5000000e+02   1.5000000e+02   1.5000000e+02   1.5000000e+02   1.5000000e+02   1.5000000e+02   1.5000000e+02   1.5000000e+02   1.5000000e+02   1.5000000e+02   1.5000000e+02   1.5000000e+02   1.5000000e+02   1.5000000e+02   1.4984449e+02   1.4968898e+02   1.3615243e+02   1.2261587e+02   1.1748025e+02   1.1234463e+02   1.0697028e+02   1.0159592e+02   9.7383794e+01   9.3171665e+01   8.8899686e+01   8.4627708e+01   7.9037343e+01   7.3446979e+01   6.7910282e+01   6.2373584e+01   5.6515737e+01   5.0657890e+01   4.6024303e+01   4.1390716e+01   3.6222268e+01   3.1053819e+01   2.7631497e+01   2.4209175e+01   2.0679419e+01   1.7149663e+01   1.2092314e+01   7.0349650e+00   3.9696701e+00   9.0437528e-01  -1.3242349e+00  -3.5528451e+00  -5.7814552e+00  -8.0100654e+00  -1.0238676e+01  -1.2467286e+01  -1.4888679e+01  -1.7310073e+01  -1.9924250e+01  -2.2538427e+01  -2.5441779e+01  -2.8345131e+01  -3.1720203e+01  -3.5095274e+01  -3.8620996e+01  -4.2146718e+01  -4.5283459e+01  -4.8420200e+01  -5.1341556e+01  -5.4262912e+01  -5.6587590e+01  -5.8912267e+01  -6.0867109e+01  -6.2821951e+01  -6.4618293e+01  -6.6414634e+01  -6.8210976e+01  -7.0007317e+01  -7.1418728e+01  -7.2830139e+01  -7.4068622e+01  -7.5307104e+01  -7.5653213e+01  -7.5999322e+01  -7.6300813e+01  -7.6602304e+01  -7.6903794e+01  -7.7205285e+01  -7.7506775e+01  -7.7808266e+01  -7.8500169e+01  -7.9192073e+01  -8.0735518e+01  -8.2278963e+01  -8.5673272e+01  -8.9067581e+01  -9.1974227e+01  -9.4880872e+01  -9.7299853e+01  -9.9718835e+01  -1.0181271e+02  -1.0390658e+02  -1.0600045e+02  -1.0809432e+02  -1.1005057e+02  -1.1200681e+02  -1.1350430e+02  -1.1500179e+02  -1.1652701e+02  -1.1805223e+02  -1.1974384e+02  -1.2143545e+02  -1.2336543e+02  -1.2529540e+02  -1.2734732e+02  -1.2939923e+02  -1.3151762e+02  -1.3363600e+02  -1.3585410e+02  -1.3807220e+02  -1.4029030e+02  -1.4250840e+02  -1.4381122e+02  -1.4511405e+02  -1.4595924e+02  -1.4680443e+02  -1.4764962e+02  -1.4849481e+02  -1.4934000e+02  -1.5018519e+02  -1.5088951e+02  -1.5159383e+02  -1.5201643e+02  -1.5243902e+02  -1.5142276e+02  -1.5040650e+02  -1.4837398e+02  -1.4634146e+02  -1.4438153e+02  -1.4242160e+02  -1.4060685e+02  -1.3879210e+02  -1.3683217e+02  -1.3487224e+02  -1.3276713e+02  -1.3066202e+02  -1.2840056e+02  -1.2613910e+02  -1.2387765e+02  -1.2161619e+02  -1.1935473e+02  -1.1709327e+02  -1.1483181e+02  -1.1257036e+02  -1.1031081e+02  -1.0805126e+02  -1.0583455e+02  -1.0361784e+02  -1.0161813e+02  -9.9618408e+01  -9.7947843e+01  -9.6277279e+01  -9.4672657e+01  -9.3068036e+01  -8.9725075e+01  -8.6382114e+01  -8.1300813e+01  -7.6219512e+01  -7.1138211e+01  -6.6056911e+01  -6.0128726e+01  -5.4200542e+01  -4.7425474e+01  -4.0650407e+01  -3.5569106e+01  -3.0487805e+01  -2.9350544e+01
1.5000000e+02   1.5000000e+02   1.5000000e+02   1.5000000e+02   1.5000000e+02   1.5000000e+02   1.5000000e+02   1.5000000e+02   1.5000000e+02   1.5000000e+02   1.5000000e+02   1.5000000e+02   1.5000000e+02   1.5000000e+02   1.5000000e+02   1.5000000e+02   1.5000000e+02   1.5000000e+02   1.5000000e+02   1.5000000e+02   1.5000000e+02   1.5000000e+02   1.5000000e+02   1.5000000e+02   1.5000000e+02   1.5000000e+02   1.5000000e+02   1.5000000e+02   1.5000000e+02   1.4968898e+02   1.4937796e+02   1.3417350e+02   1.1896904e+02   1.1358164e+02   1.0819424e+02   1.0334639e+02   9.8498535e+01   9.5168075e+01   9.1837615e+01   8.8264434e+01   8.4691253e+01   7.9267627e+01   7.3844001e+01   6.8290119e+01   6.2736236e+01   5.7529750e+01   5.2323265e+01   4.7943252e+01   4.3563240e+01   3.6968044e+01   3.0372848e+01   2.7242465e+01   2.4112083e+01   2.1141807e+01   1.8171531e+01   1.3062553e+01   7.9535746e+00   4.4609146e+00   9.6825453e-01  -1.2603556e+00  -3.4889658e+00  -5.7175760e+00  -7.9461862e+00  -1.0174796e+01  -1.2403406e+01  -1.5017583e+01  -1.7631760e+01  -2.0631504e+01  -2.3631248e+01  -2.6630992e+01  -2.9630735e+01  -3.3130916e+01  -3.6631098e+01  -4.0214685e+01  -4.3798272e+01  -4.7150398e+01  -5.0502523e+01  -5.3703557e+01  -5.6904591e+01  -5.9546270e+01  -6.2187948e+01  -6.4301291e+01  -6.6414634e+01  -6.8210976e+01  -7.0007317e+01  -7.1803659e+01  -7.3600000e+01  -7.5139721e+01  -7.6679443e+01  -7.7962544e+01  -7.9245645e+01  -7.9636372e+01  -8.0027100e+01  -8.0328591e+01  -8.0630081e+01  -8.0931572e+01  -8.1233062e+01  -8.1534553e+01  -8.1836043e+01  -8.2137534e+01  -8.2439024e+01  -8.3828760e+01  -8.5218496e+01  -8.8612805e+01  -9.2007114e+01  -9.4426095e+01  -9.6845077e+01  -9.8938949e+01  -1.0103282e+02  -1.0312669e+02  -1.0522057e+02  -1.0731444e+02  -1.0940831e+02  -1.1145631e+02  -1.1350430e+02  -1.1500179e+02  -1.1649928e+02  -1.1799677e+02  -1.1949426e+02  -1.2099175e+02  -1.2248924e+02  -1.2426404e+02  -1.2603884e+02  -1.2792457e+02  -1.2981030e+02  -1.3182897e+02  -1.3384765e+02  -1.3606575e+02  -1.3828385e+02  -1.4050194e+02  -1.4272004e+02  -1.4448050e+02  -1.4624097e+02  -1.4708616e+02  -1.4793135e+02  -1.4877654e+02  -1.4962173e+02  -1.5046692e+02  -1.5131210e+02  -1.5187556e+02  -1.5243902e+02  -1.5243902e+02  -1.5243902e+02  -1.5040650e+02  -1.4837398e+02  -1.4634146e+02  -1.4430894e+02  -1.4227642e+02  -1.4024390e+02  -1.3850174e+02  -1.3675958e+02  -1.3501742e+02  -1.3327526e+02  -1.3124274e+02  -1.2921022e+02  -1.2703252e+02  -1.2485482e+02  -1.2267712e+02  -1.2049942e+02  -1.1832172e+02  -1.1614402e+02  -1.1396632e+02  -1.1178862e+02  -1.0944340e+02  -1.0709819e+02  -1.0475297e+02  -1.0240775e+02  -1.0027671e+02  -9.8145673e+01  -9.6409165e+01  -9.4672657e+01  -9.3068036e+01  -9.1463415e+01  -8.6382114e+01  -8.1300813e+01  -7.6219512e+01  -7.1138211e+01  -6.6056911e+01  -6.0975610e+01  -5.5894309e+01  -5.0813008e+01  -4.4037940e+01  -3.7262873e+01  -3.3875339e+01  -3.0487805e+01  -2.8213284e+01
1.5000000e+02   1.5000000e+02   1.5000000e+02   1.5000000e+02   1.5000000e+02   1.5000000e+02   1.5000000e+02   1.5000000e+02   1.5000000e+02   1.5000000e+02   1.5000000e+02   1.5000000e+02   1.5000000e+02   1.5000000e+02   1.5000000e+02   1.5000000e+02   1.5000000e+02   1.5000000e+02   1.5000000e+02   1.5000000e+02   1.5000000e+02   1.5000000e+02   1.5000000e+02   1.5000000e+02   1.5000000e+02   1.5000000e+02   1.5000000e+02   1.5000000e+02   1.5000000e+02   1.4548449e+02   1.4096897e+02   1.2837398e+02   1.1577900e+02   1.1034983e+02   1.0492065e+02   1.0121776e+02   9.7514869e+01   9.4035013e+01   9.0555156e+01   8.7436708e+01   8.4318260e+01   7.8271432e+01   7.2224605e+01   6.6600164e+01   6.0975723e+01   5.7222457e+01   5.3469192e+01   4.7893131e+01   4.2317069e+01   3.5707268e+01   2.9097467e+01   2.5665415e+01   2.2233364e+01   1.9882165e+01   1.7530967e+01   1.2829455e+01   8.1279425e+00   4.5800382e+00   1.0321338e+00  -1.1964764e+00  -3.4250866e+00  -5.7500884e+00  -8.0750903e+00  -1.0689267e+01  -1.3303444e+01  -1.6110405e+01  -1.8917365e+01  -2.1917109e+01  -2.4916852e+01  -2.8000002e+01  -3.1083152e+01  -3.4625036e+01  -3.8166921e+01  -4.1750508e+01  -4.5334096e+01  -4.8773019e+01  -5.2211943e+01  -5.5459590e+01  -5.8707237e+01  -6.1675206e+01  -6.4643175e+01  -6.7113912e+01  -6.9584648e+01  -7.1592324e+01  -7.3600000e+01  -7.5396341e+01  -7.7192683e+01  -7.8860714e+01  -8.0528746e+01  -8.1811847e+01  -8.3094948e+01  -8.3574913e+01  -8.4054878e+01  -8.4356369e+01  -8.4657859e+01  -8.4959350e+01  -8.5260840e+01  -8.5562331e+01  -8.5863821e+01  -8.6165312e+01  -8.6466802e+01  -8.7312415e+01  -8.8158028e+01  -9.0902119e+01  -9.3646210e+01  -9.5902637e+01  -9.8159064e+01  -1.0025294e+02  -1.0234681e+02  -1.0444068e+02  -1.0653455e+02  -1.0862843e+02  -1.1072230e+02  -1.1279323e+02  -1.1486417e+02  -1.1643047e+02  -1.1799677e+02  -1.1949426e+02  -1.2099175e+02  -1.2248924e+02  -1.2398673e+02  -1.2562287e+02  -1.2725902e+02  -1.2900609e+02  -1.3075316e+02  -1.3270536e+02  -1.3465756e+02  -1.3670948e+02  -1.3876139e+02  -1.4084654e+02  -1.4293169e+02  -1.4492097e+02  -1.4691025e+02  -1.4798426e+02  -1.4905827e+02  -1.4990346e+02  -1.5074864e+02  -1.5131210e+02  -1.5187556e+02  -1.5215729e+02  -1.5243902e+02  -1.5142276e+02  -1.5040650e+02  -1.4837398e+02  -1.4634146e+02  -1.4430894e+02  -1.4227642e+02  -1.4024390e+02  -1.3821138e+02  -1.3639663e+02  -1.3458188e+02  -1.3283972e+02  -1.3109756e+02  -1.2921022e+02  -1.2732288e+02  -1.2536295e+02  -1.2340302e+02  -1.2122532e+02  -1.1904762e+02  -1.1686992e+02  -1.1469222e+02  -1.1251452e+02  -1.1033682e+02  -1.0807536e+02  -1.0581390e+02  -1.0355244e+02  -1.0129099e+02  -9.9136615e+01  -9.6982244e+01  -9.5025140e+01  -9.3068036e+01  -8.9725075e+01  -8.6382114e+01  -8.1300813e+01  -7.6219512e+01  -7.1138211e+01  -6.6056911e+01  -6.0975610e+01  -5.5894309e+01  -5.0813008e+01  -4.5731707e+01  -3.9803523e+01  -3.3875339e+01  -3.1044311e+01  -2.8213284e+01  -2.5938762e+01
1.5000000e+02   1.5000000e+02   1.5000000e+02   1.5000000e+02   1.5000000e+02   1.5000000e+02   1.5000000e+02   1.5000000e+02   1.5000000e+02   1.5000000e+02   1.5000000e+02   1.5000000e+02   1.5000000e+02   1.5000000e+02   1.5000000e+02   1.5000000e+02   1.5000000e+02   1.5000000e+02   1.5000000e+02   1.5000000e+02   1.5000000e+02   1.5000000e+02   1.5000000e+02   1.5000000e+02   1.5000000e+02   1.5000000e+02   1.5000000e+02   1.5000000e+02   1.5000000e+02   1.4127999e+02   1.3255998e+02   1.2257447e+02   1.1258896e+02   1.0711801e+02   1.0164706e+02   9.9089134e+01   9.6531204e+01   9.2901950e+01   8.9272697e+01   8.6608982e+01   8.3945266e+01   7.7275238e+01   7.0605209e+01   6.4910209e+01   5.9215209e+01   5.6915164e+01   5.4615119e+01   4.7843009e+01   4.1070899e+01   3.4446493e+01   2.7822086e+01   2.4088365e+01   2.0354644e+01   1.8622524e+01   1.6890403e+01   1.2596357e+01   8.3023104e+00   4.6991617e+00   1.0960130e+00  -1.1325971e+00  -3.3612073e+00  -5.7826009e+00  -8.2039944e+00  -1.1203738e+01  -1.4203482e+01  -1.7203226e+01  -2.0202969e+01  -2.3202713e+01  -2.6202457e+01  -2.9369013e+01  -3.2535569e+01  -3.6119157e+01  -3.9702744e+01  -4.3286331e+01  -4.6869919e+01  -5.0395641e+01  -5.3921362e+01  -5.7215622e+01  -6.0509882e+01  -6.3804142e+01  -6.7098402e+01  -6.9926532e+01  -7.2754663e+01  -7.4973673e+01  -7.7192683e+01  -7.8989024e+01  -8.0785366e+01  -8.2581707e+01  -8.4378049e+01  -8.5661150e+01  -8.6944251e+01  -8.7513453e+01  -8.8082656e+01  -8.8384146e+01  -8.8685637e+01  -8.8987127e+01  -8.9288618e+01  -8.9590108e+01  -8.9891599e+01  -9.0193089e+01  -9.0494580e+01  -9.0796070e+01  -9.1097561e+01  -9.3191433e+01  -9.5285306e+01  -9.7379178e+01  -9.9473050e+01  -1.0156692e+02  -1.0366079e+02  -1.0575467e+02  -1.0784854e+02  -1.0994241e+02  -1.1203628e+02  -1.1413016e+02  -1.1622403e+02  -1.1785915e+02  -1.1949426e+02  -1.2099175e+02  -1.2248924e+02  -1.2398673e+02  -1.2548422e+02  -1.2698171e+02  -1.2847920e+02  -1.3008761e+02  -1.3169603e+02  -1.3358175e+02  -1.3546748e+02  -1.3735321e+02  -1.3923893e+02  -1.4119114e+02  -1.4314334e+02  -1.4536144e+02  -1.4757953e+02  -1.4888236e+02  -1.5018519e+02  -1.5103037e+02  -1.5187556e+02  -1.5215729e+02  -1.5243902e+02  -1.5243902e+02  -1.5243902e+02  -1.5040650e+02  -1.4837398e+02  -1.4634146e+02  -1.4430894e+02  -1.4227642e+02  -1.4024390e+02  -1.3821138e+02  -1.3617886e+02  -1.3429152e+02  -1.3240418e+02  -1.3066202e+02  -1.2891986e+02  -1.2717770e+02  -1.2543554e+02  -1.2369338e+02  -1.2195122e+02  -1.1977352e+02  -1.1759582e+02  -1.1541812e+02  -1.1324042e+02  -1.1106272e+02  -1.0888502e+02  -1.0670732e+02  -1.0452962e+02  -1.0235192e+02  -1.0017422e+02  -9.7996516e+01  -9.5818815e+01  -9.3641115e+01  -9.1463415e+01  -8.6382114e+01  -8.1300813e+01  -7.6219512e+01  -7.1138211e+01  -6.6056911e+01  -6.0975610e+01  -5.5894309e+01  -5.0813008e+01  -4.5731707e+01  -4.0650407e+01  -3.5569106e+01  -3.0487805e+01  -2.8213284e+01  -2.5938762e+01  -2.3664241e+01
1.5000000e+02   1.5000000e+02   1.5000000e+02   1.5000000e+02   1.5000000e+02   1.5000000e+02   1.5000000e+02   1.5000000e+02   1.5000000e+02   1.5000000e+02   1.5000000e+02   1.5000000e+02   1.5000000e+02   1.5000000e+02   1.5000000e+02   1.5000000e+02   1.5000000e+02   1.5000000e+02   1.5000000e+02   1.5000000e+02   1.5000000e+02   1.5000000e+02   1.5000000e+02   1.5000000e+02   1.5000000e+02   1.5000000e+02   1.5000000e+02   1.5000000e+02   1.5000000e+02   1.4117882e+02   1.3235763e+02   1.2251189e+02   1.1266614e+02   1.0613200e+02   9.9597862e+01   9.6360868e+01   9.3123874e+01   9.0970447e+01   8.8817020e+01   8.5558834e+01   8.2300647e+01   7.6563886e+01   7.0827125e+01   6.4740575e+01   5.8654026e+01   5.5826704e+01   5.2999382e+01   4.6362426e+01   3.9725471e+01   3.2398100e+01   2.5070730e+01   2.2056476e+01   1.9042222e+01   1.7824254e+01   1.6606285e+01   1.2410417e+01   8.2145495e+00   4.6872209e+00   1.1598923e+00  -1.4542847e+00  -4.0684616e+00  -6.7790302e+00  -9.4895989e+00  -1.2489343e+01  -1.5489086e+01  -1.8488830e+01  -2.1488574e+01  -2.4488317e+01  -2.7488061e+01  -3.0779727e+01  -3.4071392e+01  -3.7654980e+01  -4.1238567e+01  -4.4822154e+01  -4.8405742e+01  -5.1960397e+01  -5.5515051e+01  -5.8867177e+01  -6.2219302e+01  -6.5513562e+01  -6.8807822e+01  -7.1869017e+01  -7.4930212e+01  -7.7593621e+01  -8.0257030e+01  -8.2317539e+01  -8.4378049e+01  -8.6174390e+01  -8.7970732e+01  -8.9382143e+01  -9.0793554e+01  -9.1451994e+01  -9.2110434e+01  -9.2411924e+01  -9.2713415e+01  -9.3014905e+01  -9.3316396e+01  -9.3617886e+01  -9.3919377e+01  -9.4128645e+01  -9.4337912e+01  -9.4270512e+01  -9.4203112e+01  -9.5401202e+01  -9.6599292e+01  -9.8693165e+01  -1.0078704e+02  -1.0288091e+02  -1.0497478e+02  -1.0706865e+02  -1.0916253e+02  -1.1125640e+02  -1.1335027e+02  -1.1544414e+02  -1.1753802e+02  -1.1926488e+02  -1.2099175e+02  -1.2248924e+02  -1.2398673e+02  -1.2548422e+02  -1.2698171e+02  -1.2847920e+02  -1.2997669e+02  -1.3152964e+02  -1.3308259e+02  -1.3477420e+02  -1.3646581e+02  -1.3832380e+02  -1.4018180e+02  -1.4210076e+02  -1.4401973e+02  -1.4607164e+02  -1.4812355e+02  -1.4971783e+02  -1.5131210e+02  -1.5173470e+02  -1.5215729e+02  -1.5203979e+02  -1.5192228e+02  -1.5114717e+02  -1.5037205e+02  -1.4837593e+02  -1.4637981e+02  -1.4432812e+02  -1.4227642e+02  -1.4024390e+02  -1.3821138e+02  -1.3617886e+02  -1.3414634e+02  -1.3218641e+02  -1.3022648e+02  -1.2848432e+02  -1.2674216e+02  -1.2500000e+02  -1.2325784e+02  -1.2151568e+02  -1.1977352e+02  -1.1781359e+02  -1.1585366e+02  -1.1382114e+02  -1.1178862e+02  -1.0961092e+02  -1.0743322e+02  -1.0525552e+02  -1.0307782e+02  -1.0090012e+02  -9.8722416e+01  -9.6544715e+01  -9.4367015e+01  -9.0737515e+01  -8.7108014e+01  -8.1663763e+01  -7.6219512e+01  -7.1138211e+01  -6.6056911e+01  -6.0975610e+01  -5.5894309e+01  -5.0813008e+01  -4.5731707e+01  -4.0650407e+01  -3.5569106e+01  -3.1966950e+01  -2.8364794e+01  -2.5992455e+01  -2.3620116e+01  -2.1367657e+01
1.5000000e+02   1.5000000e+02   1.5000000e+02   1.5000000e+02   1.5000000e+02   1.5000000e+02   1.5000000e+02   1.5000000e+02   1.5000000e+02   1.5000000e+02   1.5000000e+02   1.5000000e+02   1.5000000e+02   1.5000000e+02   1.5000000e+02   1.5000000e+02   1.5000000e+02   1.5000000e+02   1.5000000e+02   1.5000000e+02   1.5000000e+02   1.5000000e+02   1.5000000e+02   1.5000000e+02   1.5000000e+02   1.5000000e+02   1.5000000e+02   1.5000000e+02   1.5000000e+02   1.4107764e+02   1.3215529e+02   1.2244931e+02   1.1274333e+02   1.0514600e+02   9.7548660e+01   9.3632602e+01   8.9716545e+01   8.9038944e+01   8.8361343e+01   8.4508686e+01   8.0656028e+01   7.5852535e+01   7.1049041e+01   6.4570941e+01   5.8092842e+01   5.4738243e+01   5.1383644e+01   4.4881843e+01   3.8380043e+01   3.0349708e+01   2.2319374e+01   2.0024587e+01   1.7729801e+01   1.7025983e+01   1.6322166e+01   1.2224477e+01   8.1267886e+00   4.6752801e+00   1.2237715e+00  -1.7759722e+00  -4.7757159e+00  -7.7754596e+00  -1.0775203e+01  -1.3774947e+01  -1.6774691e+01  -1.9774434e+01  -2.2774178e+01  -2.5773922e+01  -2.8773666e+01  -3.2190441e+01  -3.5607215e+01  -3.9190803e+01  -4.2774390e+01  -4.6357978e+01  -4.9941565e+01  -5.3525152e+01  -5.7108740e+01  -6.0518731e+01  -6.3928722e+01  -6.7222981e+01  -7.0517241e+01  -7.3811501e+01  -7.7105761e+01  -8.0213569e+01  -8.3321377e+01  -8.5646055e+01  -8.7970732e+01  -8.9767073e+01  -9.1563415e+01  -9.3103136e+01  -9.4642857e+01  -9.5390534e+01  -9.6138211e+01  -9.6439702e+01  -9.6741192e+01  -9.7042683e+01  -9.7344173e+01  -9.7645664e+01  -9.7947154e+01  -9.8064200e+01  -9.8181245e+01  -9.7744954e+01  -9.7308663e+01  -9.7610971e+01  -9.7913279e+01  -1.0000715e+02  -1.0210102e+02  -1.0419490e+02  -1.0628877e+02  -1.0838264e+02  -1.1047651e+02  -1.1257039e+02  -1.1466426e+02  -1.1675813e+02  -1.1885200e+02  -1.2067062e+02  -1.2248924e+02  -1.2398673e+02  -1.2548422e+02  -1.2698171e+02  -1.2847920e+02  -1.2997669e+02  -1.3147418e+02  -1.3297166e+02  -1.3446915e+02  -1.3596664e+02  -1.3746413e+02  -1.3929440e+02  -1.4112466e+02  -1.4301039e+02  -1.4489612e+02  -1.4678184e+02  -1.4866757e+02  -1.5055330e+02  -1.5243902e+02  -1.5243902e+02  -1.5243902e+02  -1.5192228e+02  -1.5140554e+02  -1.4985531e+02  -1.4830508e+02  -1.4634536e+02  -1.4438564e+02  -1.4231477e+02  -1.4024390e+02  -1.3821138e+02  -1.3617886e+02  -1.3414634e+02  -1.3211382e+02  -1.3008130e+02  -1.2804878e+02  -1.2630662e+02  -1.2456446e+02  -1.2282230e+02  -1.2108014e+02  -1.1933798e+02  -1.1759582e+02  -1.1585366e+02  -1.1411150e+02  -1.1222416e+02  -1.1033682e+02  -1.0815912e+02  -1.0598142e+02  -1.0380372e+02  -1.0162602e+02  -9.9448316e+01  -9.7270616e+01  -9.5092915e+01  -9.2915215e+01  -8.7833914e+01  -8.2752613e+01  -7.6945412e+01  -7.1138211e+01  -6.6056911e+01  -6.0975610e+01  -5.5894309e+01  -5.0813008e+01  -4.5731707e+01  -4.0650407e+01  -3.5569106e+01  -3.0487805e+01  -2.8364794e+01  -2.6241783e+01  -2.3771626e+01  -2.1301469e+01  -1.9071073e+01
1.5000000e+02   1.5000000e+02   1.5000000e+02   1.5000000e+02   1.5000000e+02   1.5000000e+02   1.5000000e+02   1.5000000e+02   1.5000000e+02   1.5000000e+02   1.5000000e+02   1.5000000e+02   1.5000000e+02   1.5000000e+02   1.5000000e+02   1.5000000e+02   1.5000000e+02   1.5000000e+02   1.5000000e+02   1.5000000e+02   1.5000000e+02   1.5000000e+02   1.5000000e+02   1.5000000e+02   1.5000000e+02   1.5000000e+02   1.5000000e+02   1.4806533e+02   1.4613065e+02   1.3625662e+02   1.2638258e+02   1.1755325e+02   1.0872391e+02   1.0157810e+02   9.4432285e+01   9.0849752e+01   8.7267219e+01   8.6409082e+01   8.5550945e+01   8.2166940e+01   7.8782936e+01   7.4012212e+01   6.9241489e+01   6.3054271e+01   5.6867053e+01   5.1989986e+01   4.7112918e+01   4.0720998e+01   3.4329078e+01   2.6826145e+01   1.9323211e+01   1.7892353e+01   1.6461496e+01   1.5777908e+01   1.5094320e+01   1.2930293e+01   1.0766265e+01   7.0752458e+00   3.3842263e+00  -9.0778963e-01  -5.1998055e+00  -8.6303067e+00  -1.2060808e+01  -1.5060551e+01  -1.8060295e+01  -2.1060039e+01  -2.4059783e+01  -2.7101229e+01  -3.0142676e+01  -3.3642857e+01  -3.7143039e+01  -4.0726626e+01  -4.4310213e+01  -4.7893801e+01  -5.1477388e+01  -5.5060976e+01  -5.8644563e+01  -6.2141352e+01  -6.5638141e+01  -6.8932401e+01  -7.2226661e+01  -7.5520921e+01  -7.8815181e+01  -8.2016215e+01  -8.5217249e+01  -8.8026717e+01  -9.0836186e+01  -9.2996142e+01  -9.5156098e+01  -9.6824129e+01  -9.8492160e+01  -9.9329075e+01  -1.0016599e+02  -1.0046748e+02  -1.0076897e+02  -1.0107046e+02  -1.0137195e+02  -1.0148900e+02  -1.0160604e+02  -1.0144642e+02  -1.0128680e+02  -1.0085050e+02  -1.0041421e+02  -1.0034722e+02  -1.0028023e+02  -1.0184762e+02  -1.0341501e+02  -1.0550888e+02  -1.0760276e+02  -1.0969663e+02  -1.1179050e+02  -1.1388437e+02  -1.1597824e+02  -1.1807212e+02  -1.2016599e+02  -1.2207636e+02  -1.2398673e+02  -1.2548422e+02  -1.2698171e+02  -1.2847920e+02  -1.2997669e+02  -1.3147418e+02  -1.3297166e+02  -1.3446915e+02  -1.3596664e+02  -1.3746413e+02  -1.3896162e+02  -1.4062550e+02  -1.4228938e+02  -1.4406418e+02  -1.4583898e+02  -1.4772471e+02  -1.4961043e+02  -1.5102473e+02  -1.5243902e+02  -1.5192228e+02  -1.5140554e+02  -1.5037205e+02  -1.4933857e+02  -1.4778834e+02  -1.4623811e+02  -1.4444902e+02  -1.4265992e+02  -1.4047400e+02  -1.3828808e+02  -1.3621721e+02  -1.3414634e+02  -1.3211382e+02  -1.3008130e+02  -1.2804878e+02  -1.2601626e+02  -1.2420151e+02  -1.2238676e+02  -1.2064460e+02  -1.1890244e+02  -1.1716028e+02  -1.1541812e+02  -1.1367596e+02  -1.1193380e+02  -1.1011905e+02  -1.0830430e+02  -1.0634437e+02  -1.0438444e+02  -1.0227933e+02  -1.0017422e+02  -9.7996516e+01  -9.5818815e+01  -9.2915215e+01  -9.0011614e+01  -8.4204413e+01  -7.8397213e+01  -7.2227062e+01  -6.6056911e+01  -6.0975610e+01  -5.5894309e+01  -5.0813008e+01  -4.5731707e+01  -4.0650407e+01  -3.5569106e+01  -3.1966950e+01  -2.8364794e+01  -2.6241783e+01  -2.4118772e+01  -2.1822188e+01  -1.9525605e+01  -1.7001755e+01
1.5000000e+02   1.5000000e+02   1.5000000e+02   1.5000000e+02   1.5000000e+02   1.5000000e+02   1.5000000e+02   1.5000000e+02   1.5000000e+02   1.5000000e+02   1.5000000e+02   1.5000000e+02   1.5000000e+02   1.5000000e+02   1.5000000e+02   1.5000000e+02   1.5000000e+02   1.5000000e+02   1.5000000e+02   1.5000000e+02   1.5000000e+02   1.5000000e+02   1.5000000e+02   1.5000000e+02   1.5000000e+02   1.5000000e+02   1.5000000e+02   1.4613065e+02   1.4226131e+02   1.3143559e+02   1.2060988e+02   1.1265718e+02   1.0470448e+02   9.8010196e+01   9.1315910e+01   8.8066902e+01   8.4817893e+01   8.3779220e+01   8.2740547e+01   7.9825195e+01   7.6909843e+01   7.2171890e+01   6.7433937e+01   6.1537601e+01   5.5641265e+01   4.9241729e+01   4.2842193e+01   3.6560153e+01   3.0278114e+01   2.3302581e+01   1.6327049e+01   1.5760120e+01   1.5193191e+01   1.4529832e+01   1.3866474e+01   1.3636108e+01   1.3405742e+01   9.4752116e+00   5.5446810e+00  -3.9607078e-02  -5.6238952e+00  -9.4851537e+00  -1.3346412e+01  -1.6346156e+01  -1.9345900e+01  -2.2345643e+01  -2.5345387e+01  -2.8428537e+01  -3.1511687e+01  -3.5095274e+01  -3.8678862e+01  -4.2262449e+01  -4.5846037e+01  -4.9429624e+01  -5.3013211e+01  -5.6596799e+01  -6.0180386e+01  -6.3763974e+01  -6.7347561e+01  -7.0641821e+01  -7.3936081e+01  -7.7230341e+01  -8.0524601e+01  -8.3818860e+01  -8.7113120e+01  -9.0407380e+01  -9.3701640e+01  -9.6225210e+01  -9.8748780e+01  -1.0054512e+02  -1.0234146e+02  -1.0326762e+02  -1.0419377e+02  -1.0449526e+02  -1.0479675e+02  -1.0509824e+02  -1.0539973e+02  -1.0533233e+02  -1.0526493e+02  -1.0482864e+02  -1.0439235e+02  -1.0395606e+02  -1.0351976e+02  -1.0308347e+02  -1.0264718e+02  -1.0368809e+02  -1.0472900e+02  -1.0682287e+02  -1.0891674e+02  -1.1101061e+02  -1.1310449e+02  -1.1519836e+02  -1.1729223e+02  -1.1938610e+02  -1.2147998e+02  -1.2348210e+02  -1.2548422e+02  -1.2698171e+02  -1.2847920e+02  -1.2997669e+02  -1.3147418e+02  -1.3297166e+02  -1.3446915e+02  -1.3596664e+02  -1.3746413e+02  -1.3896162e+02  -1.4045911e+02  -1.4195660e+02  -1.4345409e+02  -1.4511797e+02  -1.4678184e+02  -1.4866757e+02  -1.5055330e+02  -1.5149616e+02  -1.5243902e+02  -1.5140554e+02  -1.5037205e+02  -1.4882183e+02  -1.4727160e+02  -1.4572137e+02  -1.4417115e+02  -1.4255267e+02  -1.4093419e+02  -1.3863323e+02  -1.3633226e+02  -1.3422304e+02  -1.3211382e+02  -1.3008130e+02  -1.2804878e+02  -1.2601626e+02  -1.2398374e+02  -1.2209640e+02  -1.2020906e+02  -1.1846690e+02  -1.1672474e+02  -1.1498258e+02  -1.1324042e+02  -1.1149826e+02  -1.0975610e+02  -1.0801394e+02  -1.0627178e+02  -1.0452962e+02  -1.0278746e+02  -1.0075494e+02  -9.8722416e+01  -9.6544715e+01  -9.4367015e+01  -9.0737515e+01  -8.7108014e+01  -8.0574913e+01  -7.4041812e+01  -6.7508711e+01  -6.0975610e+01  -5.5894309e+01  -5.0813008e+01  -4.5731707e+01  -4.0650407e+01  -3.5569106e+01  -3.0487805e+01  -2.8364794e+01  -2.6241783e+01  -2.4118772e+01  -2.1995761e+01  -1.9872751e+01  -1.7749740e+01  -1.4932437e+01
1.5000000e+02   1.5000000e+02   1.5000000e+02   1.5000000e+02   1.5000000e+02   1.5000000e+02   1.5000000e+02   1.5000000e+02   1.5000000e+02   1.5000000e+02   1.5000000e+02   1.5000000e+02   1.5000000e+02   1.5000000e+02   1.5000000e+02   1.5000000e+02   1.5000000e+02   1.5000000e+02   1.5000000e+02   1.5000000e+02   1.5000000e+02   1.5000000e+02   1.5000000e+02   1.5000000e+02   1.5000000e+02   1.4832726e+02   1.4665453e+02   1.4137508e+02   1.3609563e+02   1.2612720e+02   1.1615877e+02   1.0823918e+02   1.0031959e+02   9.4401561e+01   8.8483531e+01   8.5146163e+01   8.1808795e+01   7.9815315e+01   7.7821834e+01   7.5179365e+01   7.2536895e+01   6.7999032e+01   6.3461170e+01   5.7510332e+01   5.1559494e+01   4.5942953e+01   4.0326412e+01   3.3036607e+01   2.5746803e+01   1.9347584e+01   1.2948366e+01   1.1915616e+01   1.0882865e+01   1.0984051e+01   1.1085237e+01   1.1929474e+01   1.2773712e+01   7.9598374e+00   3.1459632e+00  -1.2985318e+00  -5.7430268e+00  -9.3260069e+00  -1.2908987e+01  -1.6770246e+01  -2.0631504e+01  -2.3631248e+01  -2.6630992e+01  -2.9839251e+01  -3.3047510e+01  -3.6631098e+01  -4.0214685e+01  -4.3798272e+01  -4.7381860e+01  -5.0965447e+01  -5.4549035e+01  -5.8132622e+01  -6.1716209e+01  -6.5299797e+01  -6.8883384e+01  -7.2264442e+01  -7.5645500e+01  -7.8939760e+01  -8.2234020e+01  -8.5528280e+01  -8.8822540e+01  -9.2116800e+01  -9.5411060e+01  -9.8319975e+01  -1.0122889e+02  -1.0358152e+02  -1.0593415e+02  -1.0707785e+02  -1.0822154e+02  -1.0852304e+02  -1.0882453e+02  -1.0884935e+02  -1.0887417e+02  -1.0862233e+02  -1.0837048e+02  -1.0793419e+02  -1.0749790e+02  -1.0706161e+02  -1.0662532e+02  -1.0618902e+02  -1.0575273e+02  -1.0605504e+02  -1.0635735e+02  -1.0829404e+02  -1.1023073e+02  -1.1232460e+02  -1.1441847e+02  -1.1651235e+02  -1.1860622e+02  -1.2070009e+02  -1.2279396e+02  -1.2484196e+02  -1.2688996e+02  -1.2843332e+02  -1.2997669e+02  -1.3147418e+02  -1.3297166e+02  -1.3446915e+02  -1.3596664e+02  -1.3746413e+02  -1.3896162e+02  -1.4045911e+02  -1.4195660e+02  -1.4345409e+02  -1.4495158e+02  -1.4653226e+02  -1.4811294e+02  -1.4980455e+02  -1.5149616e+02  -1.5119248e+02  -1.5088880e+02  -1.4959694e+02  -1.4830508e+02  -1.4675486e+02  -1.4520463e+02  -1.4365440e+02  -1.4210418e+02  -1.4051982e+02  -1.3893547e+02  -1.3677100e+02  -1.3460653e+02  -1.3240144e+02  -1.3019635e+02  -1.2810630e+02  -1.2601626e+02  -1.2398374e+02  -1.2195122e+02  -1.1999129e+02  -1.1803136e+02  -1.1628920e+02  -1.1454704e+02  -1.1280488e+02  -1.1106272e+02  -1.0932056e+02  -1.0757840e+02  -1.0583624e+02  -1.0409408e+02  -1.0235192e+02  -1.0060976e+02  -9.8722416e+01  -9.6835075e+01  -9.4875145e+01  -9.2915215e+01  -8.7833914e+01  -8.2752613e+01  -7.6219512e+01  -6.9686411e+01  -6.3153310e+01  -5.6620209e+01  -5.1175958e+01  -4.5731707e+01  -4.0650407e+01  -3.5569106e+01  -3.1966950e+01  -2.8364794e+01  -2.6241783e+01  -2.4118772e+01  -2.1995761e+01  -1.9872751e+01  -1.7749740e+01  -1.5626729e+01  -1.3098831e+01
1.5000000e+02   1.5000000e+02   1.5000000e+02   1.5000000e+02   1.5000000e+02   1.5000000e+02   1.5000000e+02   1.5000000e+02   1.5000000e+02   1.5000000e+02   1.5000000e+02   1.5000000e+02   1.5000000e+02   1.5000000e+02   1.5000000e+02   1.5000000e+02   1.5000000e+02   1.5000000e+02   1.5000000e+02   1.5000000e+02   1.5000000e+02   1.5000000e+02   1.5000000e+02   1.5000000e+02   1.5000000e+02   1.4665453e+02   1.4330905e+02   1.3661951e+02   1.2992996e+02   1.2081882e+02   1.1170767e+02   1.0382119e+02   9.5934699e+01   9.0792926e+01   8.5651153e+01   8.2225425e+01   7.8799697e+01   7.5851409e+01   7.2903121e+01   7.0533534e+01   6.8163948e+01   6.3826175e+01   5.9488403e+01   5.3483062e+01   4.7477722e+01   4.2644176e+01   3.7810630e+01   2.9513061e+01   2.1215492e+01   1.5392587e+01   9.5696826e+00   8.0711112e+00   6.5725398e+00   7.4382701e+00   8.3040003e+00   1.0222841e+01   1.2141681e+01   6.4444632e+00   7.4724528e-01  -2.5574565e+00  -5.8621583e+00  -9.1668601e+00  -1.2471562e+01  -1.7194335e+01  -2.1917109e+01  -2.4916852e+01  -2.7916596e+01  -3.1249965e+01  -3.4583333e+01  -3.8166921e+01  -4.1750508e+01  -4.5334096e+01  -4.8917683e+01  -5.2501270e+01  -5.6084858e+01  -5.9668445e+01  -6.3252033e+01  -6.6835620e+01  -7.0419207e+01  -7.3887064e+01  -7.7354920e+01  -8.0649180e+01  -8.3943440e+01  -8.7237700e+01  -9.0531960e+01  -9.3826220e+01  -9.7120479e+01  -1.0041474e+02  -1.0370900e+02  -1.0661791e+02  -1.0952683e+02  -1.1088808e+02  -1.1224932e+02  -1.1255081e+02  -1.1285230e+02  -1.1260046e+02  -1.1234861e+02  -1.1191232e+02  -1.1147603e+02  -1.1103974e+02  -1.1060345e+02  -1.1016716e+02  -1.0973087e+02  -1.0929458e+02  -1.0885828e+02  -1.0842199e+02  -1.0798570e+02  -1.0976521e+02  -1.1154472e+02  -1.1363859e+02  -1.1573246e+02  -1.1782633e+02  -1.1992020e+02  -1.2201408e+02  -1.2410795e+02  -1.2620182e+02  -1.2829569e+02  -1.2988493e+02  -1.3147418e+02  -1.3297166e+02  -1.3446915e+02  -1.3596664e+02  -1.3746413e+02  -1.3896162e+02  -1.4045911e+02  -1.4195660e+02  -1.4345409e+02  -1.4495158e+02  -1.4644907e+02  -1.4794656e+02  -1.4944405e+02  -1.5094154e+02  -1.5243902e+02  -1.5088880e+02  -1.4933857e+02  -1.4778834e+02  -1.4623811e+02  -1.4468789e+02  -1.4313766e+02  -1.4158743e+02  -1.4003721e+02  -1.3848698e+02  -1.3693675e+02  -1.3490878e+02  -1.3288081e+02  -1.3057984e+02  -1.2827888e+02  -1.2613131e+02  -1.2398374e+02  -1.2195122e+02  -1.1991870e+02  -1.1788618e+02  -1.1585366e+02  -1.1411150e+02  -1.1236934e+02  -1.1062718e+02  -1.0888502e+02  -1.0714286e+02  -1.0540070e+02  -1.0365854e+02  -1.0191638e+02  -1.0017422e+02  -9.8432056e+01  -9.6689895e+01  -9.4947735e+01  -9.3205575e+01  -9.1463415e+01  -8.4930314e+01  -7.8397213e+01  -7.1864111e+01  -6.5331010e+01  -5.8797909e+01  -5.2264808e+01  -4.6457607e+01  -4.0650407e+01  -3.5569106e+01  -3.0487805e+01  -2.8364794e+01  -2.6241783e+01  -2.4118772e+01  -2.1995761e+01  -1.9872751e+01  -1.7749740e+01  -1.5626729e+01  -1.3503718e+01  -1.1265225e+01
1.5000000e+02   1.5000000e+02   1.5000000e+02   1.5000000e+02   1.5000000e+02   1.5000000e+02   1.5000000e+02   1.5000000e+02   1.5000000e+02   1.5000000e+02   1.5000000e+02   1.5000000e+02   1.5000000e+02   1.5000000e+02   1.5000000e+02   1.5000000e+02   1.5000000e+02   1.5000000e+02   1.5000000e+02   1.5000000e+02   1.5000000e+02   1.5000000e+02   1.5000000e+02   1.4988111e+02   1.4976222e+02   1.4535495e+02   1.4094768e+02   1.3247470e+02   1.2400172e+02   1.1647233e+02   1.0894293e+02   1.0114192e+02   9.3340911e+01   8.7068809e+01   8.0796707e+01   7.8347715e+01   7.5898723e+01   7.2325645e+01   6.8752567e+01   6.5419086e+01   6.2085605e+01   5.7671798e+01   5.3257991e+01   4.8688610e+01   4.4119228e+01   3.9387212e+01   3.4655197e+01   2.5848802e+01   1.7042407e+01   1.1503469e+01   5.9645304e+00   5.0603380e+00   4.1561455e+00   4.4341039e+00   4.7120623e+00   5.5404482e+00   6.3688340e+00   2.2313695e+00  -1.9060951e+00  -4.8473015e+00  -7.7885080e+00  -1.0729714e+01  -1.3670921e+01  -1.7984498e+01  -2.2298075e+01  -2.5750138e+01  -2.9202200e+01  -3.2660678e+01  -3.6119157e+01  -3.9702744e+01  -4.3286331e+01  -4.6869919e+01  -5.0453506e+01  -5.4037093e+01  -5.7620681e+01  -6.1204268e+01  -6.4787856e+01  -6.8371443e+01  -7.1955030e+01  -7.5480752e+01  -7.9006474e+01  -8.2329667e+01  -8.5652860e+01  -8.8947119e+01  -9.2241379e+01  -9.5535639e+01  -9.8829899e+01  -1.0212416e+02  -1.0541842e+02  -1.0852001e+02  -1.1162159e+02  -1.1394935e+02  -1.1627710e+02  -1.1620970e+02  -1.1614230e+02  -1.1579823e+02  -1.1545416e+02  -1.1501787e+02  -1.1458158e+02  -1.1414529e+02  -1.1370900e+02  -1.1327271e+02  -1.1283642e+02  -1.1240013e+02  -1.1196384e+02  -1.1152754e+02  -1.1109125e+02  -1.1188596e+02  -1.1268067e+02  -1.1486356e+02  -1.1704645e+02  -1.1914032e+02  -1.2123419e+02  -1.2332806e+02  -1.2542194e+02  -1.2751581e+02  -1.2960968e+02  -1.3129067e+02  -1.3297166e+02  -1.3446915e+02  -1.3596664e+02  -1.3746413e+02  -1.3896162e+02  -1.4045911e+02  -1.4195660e+02  -1.4345409e+02  -1.4495158e+02  -1.4644907e+02  -1.4794656e+02  -1.4944405e+02  -1.5094154e+02  -1.5079358e+02  -1.5064562e+02  -1.4897381e+02  -1.4730200e+02  -1.4573657e+02  -1.4417115e+02  -1.4262092e+02  -1.4107069e+02  -1.3952046e+02  -1.3797024e+02  -1.3642001e+02  -1.3486978e+02  -1.3301243e+02  -1.3115509e+02  -1.2885412e+02  -1.2655315e+02  -1.2432888e+02  -1.2210462e+02  -1.1999540e+02  -1.1788618e+02  -1.1585366e+02  -1.1382114e+02  -1.1200639e+02  -1.1019164e+02  -1.0844948e+02  -1.0670732e+02  -1.0496516e+02  -1.0322300e+02  -1.0148084e+02  -9.9738676e+01  -9.7996516e+01  -9.6254355e+01  -9.4238226e+01  -9.2222097e+01  -8.9435824e+01  -8.6649551e+01  -8.0708631e+01  -7.4767712e+01  -6.8113628e+01  -6.1459543e+01  -5.4805459e+01  -4.8151374e+01  -4.1860240e+01  -3.5569106e+01  -3.1966950e+01  -2.8364794e+01  -2.6241783e+01  -2.4118772e+01  -2.1995761e+01  -1.9872751e+01  -1.7749740e+01  -1.5626729e+01  -1.3503718e+01  -1.1380707e+01  -9.1999553e+00
1.5000000e+02   1.5000000e+02   1.5000000e+02   1.5000000e+02   1.5000000e+02   1.5000000e+02   1.5000000e+02   1.5000000e+02   1.5000000e+02   1.5000000e+02   1.5000000e+02   1.5000000e+02   1.5000000e+02   1.5000000e+02   1.5000000e+02   1.5000000e+02   1.5000000e+02   1.5000000e+02   1.5000000e+02   1.5000000e+02   1.5000000e+02   1.5000000e+02   1.5000000e+02   1.4976222e+02   1.4952444e+02   1.4405537e+02   1.3858630e+02   1.2832989e+02   1.1807349e+02   1.1212584e+02   1.0617819e+02   9.8462657e+01   9.0747123e+01   8.3344692e+01   7.5942260e+01   7.4470005e+01   7.2997749e+01   6.8799880e+01   6.4602012e+01   6.0304637e+01   5.6007263e+01   5.1517421e+01   4.7027580e+01   4.3894157e+01   4.0760734e+01   3.6130249e+01   3.1499763e+01   2.2184543e+01   1.2869323e+01   7.6143508e+00   2.3593783e+00   2.0495648e+00   1.7397513e+00   1.4299378e+00   1.1201243e+00   8.5805556e-01   5.9598681e-01  -1.9817243e+00  -4.5594354e+00  -7.1371465e+00  -9.7148576e+00  -1.2292569e+01  -1.4870280e+01  -1.8774661e+01  -2.2679042e+01  -2.6583424e+01  -3.0487805e+01  -3.4071392e+01  -3.7654980e+01  -4.1238567e+01  -4.4822154e+01  -4.8405742e+01  -5.1989329e+01  -5.5572917e+01  -5.9156504e+01  -6.2740091e+01  -6.6323679e+01  -6.9907266e+01  -7.3490854e+01  -7.7074441e+01  -8.0658028e+01  -8.4010154e+01  -8.7362279e+01  -9.0656539e+01  -9.3950799e+01  -9.7245059e+01  -1.0053932e+02  -1.0383358e+02  -1.0712784e+02  -1.1042210e+02  -1.1371636e+02  -1.1701062e+02  -1.2030488e+02  -1.1986859e+02  -1.1943230e+02  -1.1899601e+02  -1.1855971e+02  -1.1812342e+02  -1.1768713e+02  -1.1725084e+02  -1.1681455e+02  -1.1637826e+02  -1.1594197e+02  -1.1550568e+02  -1.1506939e+02  -1.1463310e+02  -1.1419680e+02  -1.1400671e+02  -1.1381662e+02  -1.1608853e+02  -1.1836043e+02  -1.2045431e+02  -1.2254818e+02  -1.2464205e+02  -1.2673592e+02  -1.2882980e+02  -1.3092367e+02  -1.3269641e+02  -1.3446915e+02  -1.3596664e+02  -1.3746413e+02  -1.3896162e+02  -1.4045911e+02  -1.4195660e+02  -1.4345409e+02  -1.4495158e+02  -1.4644907e+02  -1.4794656e+02  -1.4944405e+02  -1.5094154e+02  -1.5243902e+02  -1.5064562e+02  -1.4885222e+02  -1.4705882e+02  -1.4526542e+02  -1.4368480e+02  -1.4210418e+02  -1.4055395e+02  -1.3900372e+02  -1.3745349e+02  -1.3590327e+02  -1.3435304e+02  -1.3280281e+02  -1.3111609e+02  -1.2942936e+02  -1.2712839e+02  -1.2482743e+02  -1.2252646e+02  -1.2022549e+02  -1.1803958e+02  -1.1585366e+02  -1.1382114e+02  -1.1178862e+02  -1.0990128e+02  -1.0801394e+02  -1.0627178e+02  -1.0452962e+02  -1.0278746e+02  -1.0104530e+02  -9.9303136e+01  -9.7560976e+01  -9.5818815e+01  -9.4076655e+01  -9.1786557e+01  -8.9496459e+01  -8.5666073e+01  -8.1835687e+01  -7.6486949e+01  -7.1138211e+01  -6.4363144e+01  -5.7588076e+01  -5.0813008e+01  -4.4037940e+01  -3.7262873e+01  -3.0487805e+01  -2.8364794e+01  -2.6241783e+01  -2.4118772e+01  -2.1995761e+01  -1.9872751e+01  -1.7749740e+01  -1.5626729e+01  -1.3503718e+01  -1.1380707e+01  -9.2576964e+00  -7.1346856e+00
1.5000000e+02   1.5000000e+02   1.5000000e+02   1.5000000e+02   1.5000000e+02   1.5000000e+02   1.5000000e+02   1.5000000e+02   1.5000000e+02   1.5000000e+02   1.5000000e+02   1.5000000e+02   1.5000000e+02   1.5000000e+02   1.5000000e+02   1.5000000e+02   1.5000000e+02   1.5000000e+02   1.5000000e+02   1.5000000e+02   1.5000000e+02   1.4802377e+02   1.4604753e+02   1.4386695e+02   1.4168638e+02   1.3699843e+02   1.3231049e+02   1.2360762e+02   1.1490475e+02   1.0891093e+02   1.0291711e+02   9.3336069e+01   8.3755031e+01   7.5896755e+01   6.8038478e+01   6.6678533e+01   6.5318588e+01   6.1118673e+01   5.6918758e+01   5.1951559e+01   4.6984359e+01   4.3696397e+01   4.0408435e+01   3.7924838e+01   3.5441240e+01   3.0669571e+01   2.5897903e+01   1.8009838e+01   1.0121772e+01   6.3536636e+00   2.5855550e+00   1.8374296e+00   1.0893041e+00  -9.7133352e-02  -1.2835708e+00  -2.2210118e+00  -3.1584528e+00  -5.1604045e+00  -7.1623562e+00  -9.7463698e+00  -1.2330383e+01  -1.4914397e+01  -1.7498410e+01  -2.0745759e+01  -2.3993108e+01  -2.7240456e+01  -3.0487805e+01  -3.4327363e+01  -3.8166921e+01  -4.2006479e+01  -4.5846037e+01  -4.9685595e+01  -5.3525152e+01  -5.7108740e+01  -6.0692327e+01  -6.4275915e+01  -6.7859502e+01  -7.1443089e+01  -7.5026677e+01  -7.8610264e+01  -8.2193852e+01  -8.5632775e+01  -8.9071699e+01  -9.2365959e+01  -9.5660219e+01  -9.8954479e+01  -1.0224874e+02  -1.0554300e+02  -1.0883726e+02  -1.1193308e+02  -1.1502891e+02  -1.1772787e+02  -1.2042683e+02  -1.2100234e+02  -1.2157785e+02  -1.2162156e+02  -1.2166526e+02  -1.2122897e+02  -1.2079268e+02  -1.2035639e+02  -1.1992010e+02  -1.1948381e+02  -1.1904752e+02  -1.1861123e+02  -1.1817494e+02  -1.1773865e+02  -1.1730235e+02  -1.1698916e+02  -1.1667597e+02  -1.1808618e+02  -1.1949639e+02  -1.2167928e+02  -1.2386217e+02  -1.2595604e+02  -1.2804991e+02  -1.3014378e+02  -1.3223765e+02  -1.3410215e+02  -1.3596664e+02  -1.3746413e+02  -1.3896162e+02  -1.4045911e+02  -1.4195660e+02  -1.4345409e+02  -1.4495158e+02  -1.4644907e+02  -1.4794656e+02  -1.4944405e+02  -1.5094154e+02  -1.5079358e+02  -1.5064562e+02  -1.4885222e+02  -1.4705882e+02  -1.4526542e+02  -1.4347202e+02  -1.4178501e+02  -1.4009800e+02  -1.3851737e+02  -1.3693675e+02  -1.3538652e+02  -1.3383630e+02  -1.3228607e+02  -1.3073584e+02  -1.2911736e+02  -1.2749889e+02  -1.2530030e+02  -1.2310170e+02  -1.2080074e+02  -1.1849977e+02  -1.1625633e+02  -1.1401289e+02  -1.1188449e+02  -1.0975610e+02  -1.0779617e+02  -1.0583624e+02  -1.0409408e+02  -1.0235192e+02  -1.0060976e+02  -9.8867596e+01  -9.7125436e+01  -9.5383275e+01  -9.3093177e+01  -9.0803080e+01  -8.7691076e+01  -8.4579072e+01  -8.0800447e+01  -7.7021823e+01  -7.2386250e+01  -6.7750678e+01  -6.0975610e+01  -5.4200542e+01  -4.7425474e+01  -4.0650407e+01  -3.4692344e+01  -2.8734282e+01  -2.6294719e+01  -2.3855156e+01  -2.1065086e+01  -1.8275016e+01  -1.6684584e+01  -1.5094151e+01  -1.3237429e+01  -1.1380707e+01  -9.2576964e+00  -7.1346856e+00  -5.0116747e+00
1.5000000e+02   1.5000000e+02   1.5000000e+02   1.5000000e+02   1.5000000e+02   1.5000000e+02   1.5000000e+02   1.5000000e+02   1.5000000e+02   1.5000000e+02   1.5000000e+02   1.5000000e+02   1.5000000e+02   1.5000000e+02   1.5000000e+02   1.5000000e+02   1.5000000e+02   1.5000000e+02   1.5000000e+02   1.5000000e+02   1.5000000e+02   1.4604753e+02   1.4209506e+02   1.3797169e+02   1.3384831e+02   1.2994149e+02   1.2603467e+02   1.1888534e+02   1.1173602e+02   1.0569602e+02   9.9656021e+01   8.8209480e+01   7.6762939e+01   6.8448818e+01   6.0134696e+01   5.8887062e+01   5.7639427e+01   5.3437465e+01   4.9235504e+01   4.3598480e+01   3.7961456e+01   3.5875373e+01   3.3789291e+01   3.1955518e+01   3.0121746e+01   2.5208894e+01   2.0296043e+01   1.3835132e+01   7.3742213e+00   5.0929765e+00   2.8117318e+00   1.6252943e+00   4.3885689e-01  -1.6242045e+00  -3.6872659e+00  -5.3000791e+00  -6.9128924e+00  -8.3390847e+00  -9.7652771e+00  -1.2355593e+01  -1.4945909e+01  -1.7536225e+01  -2.0126541e+01  -2.2716857e+01  -2.5307173e+01  -2.7897489e+01  -3.0487805e+01  -3.4583333e+01  -3.8678862e+01  -4.2774390e+01  -4.6869919e+01  -5.0965447e+01  -5.5060976e+01  -5.8644563e+01  -6.2228150e+01  -6.5811738e+01  -6.9395325e+01  -7.2978913e+01  -7.6562500e+01  -8.0146087e+01  -8.3729675e+01  -8.7255397e+01  -9.0781119e+01  -9.4075378e+01  -9.7369638e+01  -1.0066390e+02  -1.0395816e+02  -1.0725242e+02  -1.1054668e+02  -1.1344407e+02  -1.1634146e+02  -1.1844512e+02  -1.2054878e+02  -1.2213609e+02  -1.2372340e+02  -1.2424711e+02  -1.2477082e+02  -1.2433452e+02  -1.2389823e+02  -1.2346194e+02  -1.2302565e+02  -1.2258936e+02  -1.2215307e+02  -1.2171678e+02  -1.2128049e+02  -1.2084420e+02  -1.2040791e+02  -1.1997161e+02  -1.1953532e+02  -1.2008383e+02  -1.2063234e+02  -1.2290425e+02  -1.2517615e+02  -1.2727002e+02  -1.2936390e+02  -1.3145777e+02  -1.3355164e+02  -1.3550789e+02  -1.3746413e+02  -1.3896162e+02  -1.4045911e+02  -1.4195660e+02  -1.4345409e+02  -1.4495158e+02  -1.4644907e+02  -1.4794656e+02  -1.4944405e+02  -1.5094154e+02  -1.5243902e+02  -1.5064562e+02  -1.4885222e+02  -1.4705882e+02  -1.4526542e+02  -1.4347202e+02  -1.4167862e+02  -1.3988522e+02  -1.3809182e+02  -1.3648080e+02  -1.3486978e+02  -1.3331955e+02  -1.3176933e+02  -1.3021910e+02  -1.2866887e+02  -1.2711864e+02  -1.2556842e+02  -1.2347220e+02  -1.2137598e+02  -1.1907501e+02  -1.1677405e+02  -1.1447308e+02  -1.1217211e+02  -1.0994784e+02  -1.0772358e+02  -1.0569106e+02  -1.0365854e+02  -1.0191638e+02  -1.0017422e+02  -9.8432056e+01  -9.6689895e+01  -9.4947735e+01  -9.3205575e+01  -9.0367540e+01  -8.7529504e+01  -8.3595594e+01  -7.9661684e+01  -7.5934821e+01  -7.2207959e+01  -6.8285551e+01  -6.4363144e+01  -5.7588076e+01  -5.0813008e+01  -4.4037940e+01  -3.7262873e+01  -3.2121816e+01  -2.6980760e+01  -2.4224645e+01  -2.1468529e+01  -1.8011400e+01  -1.4554271e+01  -1.3496416e+01  -1.2438562e+01  -1.0848129e+01  -9.2576964e+00  -7.1346856e+00  -5.0116747e+00  -2.8886639e+00
1.5000000e+02   1.5000000e+02   1.5000000e+02   1.5000000e+02   1.5000000e+02   1.5000000e+02   1.5000000e+02   1.5000000e+02   1.5000000e+02   1.5000000e+02   1.5000000e+02   1.5000000e+02   1.5000000e+02   1.5000000e+02   1.5000000e+02   1.5000000e+02   1.5000000e+02   1.4954821e+02   1.4909642e+02   1.4778466e+02   1.4647291e+02   1.4230613e+02   1.3813936e+02   1.3253563e+02   1.2693191e+02   1.2234361e+02   1.1775532e+02   1.1319815e+02   1.0864098e+02   1.0144858e+02   9.4256172e+01   8.1927377e+01   6.9598583e+01   6.0389751e+01   5.1180919e+01   4.9453340e+01   4.7725761e+01   4.4732341e+01   4.1738922e+01   3.6524270e+01   3.1309617e+01   3.0415110e+01   2.9520603e+01   2.7922908e+01   2.6325214e+01   2.1346220e+01   1.6367225e+01   1.0998096e+01   5.6289668e+00   3.4568137e+00   1.2846606e+00  -3.4008880e-01  -1.9648382e+00  -4.0278996e+00  -6.0909610e+00  -7.9288983e+00  -9.7668356e+00  -1.1061214e+01  -1.2355593e+01  -1.4945909e+01  -1.7536225e+01  -2.0126541e+01  -2.2716857e+01  -2.5307173e+01  -2.7897489e+01  -3.0601322e+01  -3.3305155e+01  -3.6983902e+01  -4.0662648e+01  -4.4474778e+01  -4.8286909e+01  -5.2099039e+01  -5.5911170e+01  -5.9467330e+01  -6.3023489e+01  -6.6721348e+01  -7.0419207e+01  -7.4258765e+01  -7.8098323e+01  -8.1681911e+01  -8.5265498e+01  -8.8820153e+01  -9.2374807e+01  -9.5726933e+01  -9.9079058e+01  -1.0237332e+02  -1.0566758e+02  -1.0856497e+02  -1.1146236e+02  -1.1396289e+02  -1.1646341e+02  -1.1856707e+02  -1.2067073e+02  -1.2251622e+02  -1.2436170e+02  -1.2515904e+02  -1.2595637e+02  -1.2608008e+02  -1.2620379e+02  -1.2616750e+02  -1.2613120e+02  -1.2569491e+02  -1.2525862e+02  -1.2482233e+02  -1.2438604e+02  -1.2394975e+02  -1.2351346e+02  -1.2307717e+02  -1.2264087e+02  -1.2269698e+02  -1.2275309e+02  -1.2453260e+02  -1.2631210e+02  -1.2849499e+02  -1.3067788e+02  -1.3277176e+02  -1.3486563e+02  -1.3689069e+02  -1.3891575e+02  -1.4043617e+02  -1.4195660e+02  -1.4345409e+02  -1.4495158e+02  -1.4644907e+02  -1.4794656e+02  -1.4944405e+02  -1.5094154e+02  -1.5073754e+02  -1.5053354e+02  -1.4873559e+02  -1.4693765e+02  -1.4520484e+02  -1.4347202e+02  -1.4167862e+02  -1.3988522e+02  -1.3809182e+02  -1.3629842e+02  -1.3459621e+02  -1.3289400e+02  -1.3129818e+02  -1.2970236e+02  -1.2815213e+02  -1.2660190e+02  -1.2505167e+02  -1.2350145e+02  -1.2157585e+02  -1.1965025e+02  -1.1734929e+02  -1.1504832e+02  -1.1274735e+02  -1.1044639e+02  -1.0818377e+02  -1.0592115e+02  -1.0377358e+02  -1.0162602e+02  -9.9811266e+01  -9.7996516e+01  -9.6254355e+01  -9.4512195e+01  -9.1948129e+01  -8.9384062e+01  -8.5998089e+01  -8.2612116e+01  -7.8678206e+01  -7.4744296e+01  -7.1069195e+01  -6.7394095e+01  -6.3828270e+01  -6.0262445e+01  -5.3843959e+01  -4.7425474e+01  -4.0650407e+01  -3.3875339e+01  -2.9551288e+01  -2.5227237e+01  -2.2095657e+01  -1.8964077e+01  -1.6232920e+01  -1.3501762e+01  -1.1244270e+01  -8.9867785e+00  -6.4629976e+00  -3.9392167e+00  -2.3487840e+00  -7.5835130e-01   8.3208140e-01
1.5000000e+02   1.5000000e+02   1.5000000e+02   1.5000000e+02   1.5000000e+02   1.5000000e+02   1.5000000e+02   1.5000000e+02   1.5000000e+02   1.5000000e+02   1.5000000e+02   1.5000000e+02   1.5000000e+02   1.5000000e+02   1.5000000e+02   1.5000000e+02   1.5000000e+02   1.4909642e+02   1.4819284e+02   1.4556933e+02   1.4294582e+02   1.3856473e+02   1.3418365e+02   1.2709958e+02   1.2001550e+02   1.1474573e+02   1.0947597e+02   1.0751096e+02   1.0554594e+02   9.7201133e+01   8.8856323e+01   7.5645275e+01   6.2434226e+01   5.2330684e+01   4.2227142e+01   4.0019618e+01   3.7812095e+01   3.6027217e+01   3.4242340e+01   2.9450059e+01   2.4657779e+01   2.4954847e+01   2.5251914e+01   2.3890298e+01   2.2528682e+01   1.7483545e+01   1.2438407e+01   8.1610598e+00   3.8837123e+00   1.8206509e+00  -2.4241053e-01  -2.3054719e+00  -4.3685333e+00  -6.4315947e+00  -8.4946561e+00  -1.0557717e+01  -1.2620779e+01  -1.3783344e+01  -1.4945909e+01  -1.7536225e+01  -2.0126541e+01  -2.2716857e+01  -2.5307173e+01  -2.7897489e+01  -3.0487805e+01  -3.3305155e+01  -3.6122506e+01  -3.9384470e+01  -4.2646434e+01  -4.6175166e+01  -4.9703899e+01  -5.3232631e+01  -5.6761364e+01  -6.0290096e+01  -6.3818829e+01  -6.7630959e+01  -7.1443089e+01  -7.5538618e+01  -7.9634146e+01  -8.3217734e+01  -8.6801321e+01  -9.0384909e+01  -9.3968496e+01  -9.7378487e+01  -1.0078848e+02  -1.0408274e+02  -1.0737700e+02  -1.0987752e+02  -1.1237805e+02  -1.1448171e+02  -1.1658537e+02  -1.1868902e+02  -1.2079268e+02  -1.2289634e+02  -1.2500000e+02  -1.2607097e+02  -1.2714193e+02  -1.2782564e+02  -1.2850934e+02  -1.2887305e+02  -1.2923675e+02  -1.2880046e+02  -1.2836417e+02  -1.2792788e+02  -1.2749159e+02  -1.2705530e+02  -1.2661901e+02  -1.2618272e+02  -1.2574643e+02  -1.2531013e+02  -1.2487384e+02  -1.2616095e+02  -1.2744806e+02  -1.2971996e+02  -1.3199187e+02  -1.3408574e+02  -1.3617961e+02  -1.3827349e+02  -1.4036736e+02  -1.4191072e+02  -1.4345409e+02  -1.4495158e+02  -1.4644907e+02  -1.4794656e+02  -1.4944405e+02  -1.5094154e+02  -1.5243902e+02  -1.5053354e+02  -1.4862805e+02  -1.4682556e+02  -1.4502307e+02  -1.4335085e+02  -1.4167862e+02  -1.3988522e+02  -1.3809182e+02  -1.3629842e+02  -1.3450502e+02  -1.3271162e+02  -1.3091822e+02  -1.2927680e+02  -1.2763539e+02  -1.2608516e+02  -1.2453493e+02  -1.2298470e+02  -1.2143448e+02  -1.1967950e+02  -1.1792453e+02  -1.1562356e+02  -1.1332260e+02  -1.1102163e+02  -1.0872066e+02  -1.0641970e+02  -1.0411873e+02  -1.0185611e+02  -9.9593496e+01  -9.7706156e+01  -9.5818815e+01  -9.4076655e+01  -9.2334495e+01  -8.8948522e+01  -8.5562549e+01  -8.1628639e+01  -7.7694729e+01  -7.3760818e+01  -6.9826908e+01  -6.6203570e+01  -6.2580231e+01  -5.9370988e+01  -5.6161746e+01  -5.0099843e+01  -4.4037940e+01  -3.7262873e+01  -3.0487805e+01  -2.6980760e+01  -2.3473715e+01  -1.9966670e+01  -1.6459625e+01  -1.4454439e+01  -1.2449254e+01  -8.9921244e+00  -5.5349953e+00  -2.0778661e+00   1.3792631e+00   2.4371176e+00   3.4949722e+00   4.5528267e+00
1.5000000e+02   1.5000000e+02   1.5000000e+02   1.5000000e+02   1.5000000e+02   1.5000000e+02   1.5000000e+02   1.5000000e+02   1.5000000e+02   1.5000000e+02   1.5000000e+02   1.5000000e+02   1.5000000e+02   1.5000000e+02   1.5000000e+02   1.4576242e+02   1.4152485e+02   1.4022350e+02   1.3892216e+02   1.3645283e+02   1.3398350e+02   1.3014082e+02   1.2629815e+02   1.2056504e+02   1.1483194e+02   1.0819421e+02   1.0155648e+02   9.7220066e+01   9.2883655e+01   8.5507627e+01   7.8131599e+01   6.4251365e+01   5.0371131e+01   4.2915087e+01   3.5459043e+01   3.2349170e+01   2.9239297e+01   2.6227734e+01   2.3216171e+01   1.9928183e+01   1.6640195e+01   1.9226821e+01   2.1813447e+01   2.0362954e+01   1.8912460e+01   1.3781531e+01   8.6506018e+00   5.1095374e+00   1.5684730e+00  -6.1890555e-01  -2.8062841e+00  -4.8293009e+00  -6.8523177e+00  -8.8753344e+00  -1.0898351e+01  -1.2961413e+01  -1.5024474e+01  -1.6637287e+01  -1.8250100e+01  -2.0483479e+01  -2.2716857e+01  -2.5307173e+01  -2.7897489e+01  -3.0601322e+01  -3.3305155e+01  -3.6122506e+01  -3.8939856e+01  -4.2068436e+01  -4.5197016e+01  -4.8725748e+01  -5.2254481e+01  -5.5783213e+01  -5.9311946e+01  -6.2840678e+01  -6.6369411e+01  -7.0039842e+01  -7.3710273e+01  -7.7522404e+01  -8.1334534e+01  -8.4890694e+01  -8.8446854e+01  -9.2003014e+01  -9.5559174e+01  -9.9028536e+01  -1.0249790e+02  -1.0519686e+02  -1.0789582e+02  -1.1019791e+02  -1.1250000e+02  -1.1460366e+02  -1.1670732e+02  -1.1881098e+02  -1.2091463e+02  -1.2301829e+02  -1.2512195e+02  -1.2664472e+02  -1.2816749e+02  -1.2885119e+02  -1.2953490e+02  -1.3005860e+02  -1.3058231e+02  -1.3070602e+02  -1.3082972e+02  -1.3071343e+02  -1.3059714e+02  -1.3016085e+02  -1.2972456e+02  -1.2928827e+02  -1.2885198e+02  -1.2841569e+02  -1.2797939e+02  -1.2840480e+02  -1.2883021e+02  -1.3097902e+02  -1.3312782e+02  -1.3531071e+02  -1.3749360e+02  -1.3958747e+02  -1.4168135e+02  -1.4331646e+02  -1.4495158e+02  -1.4644907e+02  -1.4794656e+02  -1.4944405e+02  -1.5094154e+02  -1.5073754e+02  -1.5053354e+02  -1.4862805e+02  -1.4672256e+02  -1.4486857e+02  -1.4301458e+02  -1.4132873e+02  -1.3964287e+02  -1.3792218e+02  -1.3620148e+02  -1.3445655e+02  -1.3271162e+02  -1.3091822e+02  -1.2912482e+02  -1.2740741e+02  -1.2569000e+02  -1.2407898e+02  -1.2246796e+02  -1.2091773e+02  -1.1936751e+02  -1.1771491e+02  -1.1606231e+02  -1.1382959e+02  -1.1159687e+02  -1.0929590e+02  -1.0699494e+02  -1.0469397e+02  -1.0239301e+02  -1.0011121e+02  -9.7829422e+01  -9.5735268e+01  -9.3641115e+01  -9.0803080e+01  -8.7965044e+01  -8.4305103e+01  -8.0645161e+01  -7.6711251e+01  -7.2777341e+01  -6.8843430e+01  -6.4909520e+01  -6.1337944e+01  -5.7766367e+01  -5.4557125e+01  -5.1347882e+01  -4.5999144e+01  -4.0650407e+01  -3.4692344e+01  -2.8734282e+01  -2.5227237e+01  -2.1720192e+01  -1.8213147e+01  -1.4706102e+01  -1.2137719e+01  -9.5693364e+00  -7.0259115e+00  -4.4824866e+00  -1.0253574e+00   2.4317717e+00   4.6892636e+00   6.9467554e+00   9.2042473e+00
1.5000000e+02   1.5000000e+02   1.5000000e+02   1.5000000e+02   1.5000000e+02   1.5000000e+02   1.5000000e+02   1.5000000e+02   1.5000000e+02   1.5000000e+02   1.5000000e+02   1.5000000e+02   1.5000000e+02   1.5000000e+02   1.5000000e+02   1.4152485e+02   1.3304970e+02   1.3135059e+02   1.2965147e+02   1.2733633e+02   1.2502118e+02   1.2171691e+02   1.1841264e+02   1.1403051e+02   1.0964838e+02   1.0164268e+02   9.3636985e+01   8.6929176e+01   8.0221366e+01   7.3814121e+01   6.7406875e+01   5.2857456e+01   3.8308036e+01   3.3499490e+01   2.8690944e+01   2.4678722e+01   2.0666500e+01   1.6428251e+01   1.2190002e+01   1.0406307e+01   8.6226115e+00   1.3498796e+01   1.8374980e+01   1.6835609e+01   1.5296237e+01   1.0079517e+01   4.8627963e+00   2.0580150e+00  -7.4676619e-01  -3.0584620e+00  -5.3701577e+00  -7.3531299e+00  -9.3361020e+00  -1.1319074e+01  -1.3302046e+01  -1.5365108e+01  -1.7428169e+01  -1.9491230e+01  -2.1554292e+01  -2.3430732e+01  -2.5307173e+01  -2.7897489e+01  -3.0487805e+01  -3.3305155e+01  -3.6122506e+01  -3.8939856e+01  -4.1757206e+01  -4.4752402e+01  -4.7747598e+01  -5.1276330e+01  -5.4805063e+01  -5.8333795e+01  -6.1862528e+01  -6.5391260e+01  -6.8919993e+01  -7.2448725e+01  -7.5977458e+01  -7.9506190e+01  -8.3034922e+01  -8.6563655e+01  -9.0092387e+01  -9.3621120e+01  -9.7149852e+01  -1.0067858e+02  -1.0420732e+02  -1.0631098e+02  -1.0841463e+02  -1.1051829e+02  -1.1262195e+02  -1.1472561e+02  -1.1682927e+02  -1.1893293e+02  -1.2103659e+02  -1.2314024e+02  -1.2524390e+02  -1.2721847e+02  -1.2919305e+02  -1.2987675e+02  -1.3056046e+02  -1.3124416e+02  -1.3192787e+02  -1.3261157e+02  -1.3329528e+02  -1.3349898e+02  -1.3370269e+02  -1.3326640e+02  -1.3283011e+02  -1.3239382e+02  -1.3195753e+02  -1.3152124e+02  -1.3108495e+02  -1.3064865e+02  -1.3021236e+02  -1.3223807e+02  -1.3426378e+02  -1.3653568e+02  -1.3880759e+02  -1.4090146e+02  -1.4299533e+02  -1.4472220e+02  -1.4644907e+02  -1.4794656e+02  -1.4944405e+02  -1.5094154e+02  -1.5243902e+02  -1.5053354e+02  -1.4862805e+02  -1.4672256e+02  -1.4481707e+02  -1.4291159e+02  -1.4100610e+02  -1.3930661e+02  -1.3760712e+02  -1.3595913e+02  -1.3431114e+02  -1.3261468e+02  -1.3091822e+02  -1.2912482e+02  -1.2733142e+02  -1.2553802e+02  -1.2374462e+02  -1.2207281e+02  -1.2040099e+02  -1.1885076e+02  -1.1730054e+02  -1.1575031e+02  -1.1420008e+02  -1.1203561e+02  -1.0987115e+02  -1.0757018e+02  -1.0526921e+02  -1.0296825e+02  -1.0066728e+02  -9.8366314e+01  -9.6065347e+01  -9.3764381e+01  -9.1463415e+01  -8.7529504e+01  -8.3595594e+01  -7.9661684e+01  -7.5727773e+01  -7.1793863e+01  -6.7859953e+01  -6.3926042e+01  -5.9992132e+01  -5.6472318e+01  -5.2952503e+01  -4.9743261e+01  -4.6534018e+01  -4.1898445e+01  -3.7262873e+01  -3.2121816e+01  -2.6980760e+01  -2.3473715e+01  -1.9966670e+01  -1.6459625e+01  -1.2952580e+01  -9.8209995e+00  -6.6894193e+00  -5.0596986e+00  -3.4299779e+00   2.7151241e-02   3.4842804e+00   6.9414096e+00   1.0398539e+01   1.3855668e+01
1.5000000e+02   1.5000000e+02   1.5000000e+02   1.5000000e+02   1.5000000e+02   1.5000000e+02   1.5000000e+02   1.4991084e+02   1.4982168e+02   1.4963524e+02   1.4944881e+02   1.4872587e+02   1.4800294e+02   1.4454145e+02   1.4107996e+02   1.3319395e+02   1.2530794e+02   1.2261632e+02   1.1992470e+02   1.1739888e+02   1.1487305e+02   1.1206901e+02   1.0926498e+02   1.0577760e+02   1.0229023e+02   9.6720499e+01   9.1150772e+01   8.2121774e+01   7.3092777e+01   6.3562112e+01   5.4031448e+01   4.2289667e+01   3.0547885e+01   2.5388355e+01   2.0228824e+01   1.6221817e+01   1.2214811e+01   9.6911852e+00   7.1675596e+00   5.8712108e+00   4.5748620e+00   8.2704486e+00   1.1966035e+01   1.0495998e+01   9.0259604e+00   5.4560948e+00   1.8862291e+00  -5.8788813e-01  -3.0620054e+00  -5.5380630e+00  -8.0141206e+00  -9.9970927e+00  -1.1980065e+01  -1.3963037e+01  -1.5946009e+01  -1.7969026e+01  -1.9992043e+01  -2.2015059e+01  -2.4038076e+01  -2.5967783e+01  -2.7897489e+01  -3.0601322e+01  -3.3305155e+01  -3.6122506e+01  -3.8939856e+01  -4.1757206e+01  -4.4574557e+01  -4.7480830e+01  -5.0387103e+01  -5.3871374e+01  -5.7355645e+01  -6.0884377e+01  -6.4413110e+01  -6.7941842e+01  -7.1470575e+01  -7.4999307e+01  -7.8528040e+01  -8.2056772e+01  -8.5585504e+01  -8.9114237e+01  -9.2642969e+01  -9.6171702e+01  -9.9700434e+01  -1.0257686e+02  -1.0545328e+02  -1.0711253e+02  -1.0877178e+02  -1.1075784e+02  -1.1274390e+02  -1.1484756e+02  -1.1695122e+02  -1.1905488e+02  -1.2115854e+02  -1.2326220e+02  -1.2536585e+02  -1.2740497e+02  -1.2944408e+02  -1.3051505e+02  -1.3158601e+02  -1.3226972e+02  -1.3295343e+02  -1.3363713e+02  -1.3432084e+02  -1.3476454e+02  -1.3520825e+02  -1.3533195e+02  -1.3545566e+02  -1.3525937e+02  -1.3506308e+02  -1.3462679e+02  -1.3419050e+02  -1.3375421e+02  -1.3331791e+02  -1.3435882e+02  -1.3539973e+02  -1.3767164e+02  -1.3994354e+02  -1.4212643e+02  -1.4430932e+02  -1.4612794e+02  -1.4794656e+02  -1.4944405e+02  -1.5094154e+02  -1.5073754e+02  -1.5053354e+02  -1.4862805e+02  -1.4672256e+02  -1.4481707e+02  -1.4291159e+02  -1.4100610e+02  -1.3910061e+02  -1.3732387e+02  -1.3554713e+02  -1.3389914e+02  -1.3225115e+02  -1.3057893e+02  -1.2890670e+02  -1.2718601e+02  -1.2546531e+02  -1.2370827e+02  -1.2195122e+02  -1.2021861e+02  -1.1848601e+02  -1.1685979e+02  -1.1523357e+02  -1.1368334e+02  -1.1213311e+02  -1.1013927e+02  -1.0814542e+02  -1.0584445e+02  -1.0354349e+02  -1.0124252e+02  -9.8941555e+01  -9.6640589e+01  -9.4339623e+01  -9.1072250e+01  -8.7804878e+01  -8.3398899e+01  -7.8992919e+01  -7.4901652e+01  -7.0810386e+01  -6.6876475e+01  -6.2942565e+01  -5.9008655e+01  -5.5074744e+01  -5.1606692e+01  -4.8138639e+01  -4.4929397e+01  -4.1720154e+01  -3.7797746e+01  -3.3875339e+01  -2.9551288e+01  -2.5227237e+01  -2.1720192e+01  -1.8213147e+01  -1.4706102e+01  -1.1199057e+01  -7.8797445e+00  -4.5604319e+00  -2.5552463e+00  -5.5006078e-01   1.9933641e+00   4.5367891e+00   9.9324870e+00   1.5328185e+01   2.3241603e+01
1.5000000e+02   1.5000000e+02   1.5000000e+02   1.5000000e+02   1.5000000e+02   1.5000000e+02   1.5000000e+02   1.4982168e+02   1.4964336e+02   1.4927048e+02   1.4889761e+02   1.4745174e+02   1.4600587e+02   1.3908289e+02   1.3215991e+02   1.2486304e+02   1.1756618e+02   1.1388205e+02   1.1019792e+02   1.0746143e+02   1.0472493e+02   1.0242112e+02   1.0011731e+02   9.7524692e+01   9.4932075e+01   9.1798316e+01   8.8664558e+01   7.7314373e+01   6.5964187e+01   5.3310104e+01   4.0656021e+01   3.1721878e+01   2.2787734e+01   1.7277219e+01   1.1766704e+01   7.7649130e+00   3.7631220e+00   2.9541196e+00   2.1451172e+00   1.3361148e+00   5.2711245e-01   3.0421013e+00   5.5570902e+00   4.1563868e+00   2.7556834e+00   8.3267270e-01  -1.0903380e+00  -3.2337913e+00  -5.3772446e+00  -8.0176640e+00  -1.0658083e+01  -1.2641056e+01  -1.4624028e+01  -1.6607000e+01  -1.8589972e+01  -2.0572944e+01  -2.2555916e+01  -2.4538888e+01  -2.6521861e+01  -2.8504833e+01  -3.0487805e+01  -3.3305155e+01  -3.6122506e+01  -3.8939856e+01  -4.1757206e+01  -4.4574557e+01  -4.7391907e+01  -5.0209257e+01  -5.3026608e+01  -5.6466417e+01  -5.9906227e+01  -6.3434959e+01  -6.6963692e+01  -7.0492424e+01  -7.4021157e+01  -7.7549889e+01  -8.1078622e+01  -8.4607354e+01  -8.8136086e+01  -9.1664819e+01  -9.5193551e+01  -9.8722284e+01  -1.0225102e+02  -1.0447513e+02  -1.0669925e+02  -1.0791408e+02  -1.0912892e+02  -1.1099739e+02  -1.1286585e+02  -1.1496951e+02  -1.1707317e+02  -1.1917683e+02  -1.2128049e+02  -1.2338415e+02  -1.2548780e+02  -1.2759146e+02  -1.2969512e+02  -1.3115335e+02  -1.3261157e+02  -1.3329528e+02  -1.3397898e+02  -1.3466269e+02  -1.3534639e+02  -1.3603010e+02  -1.3671380e+02  -1.3739751e+02  -1.3808121e+02  -1.3812492e+02  -1.3816863e+02  -1.3773234e+02  -1.3729605e+02  -1.3685976e+02  -1.3642347e+02  -1.3647957e+02  -1.3653568e+02  -1.3880759e+02  -1.4107949e+02  -1.4335140e+02  -1.4562331e+02  -1.4753368e+02  -1.4944405e+02  -1.5094154e+02  -1.5243902e+02  -1.5053354e+02  -1.4862805e+02  -1.4672256e+02  -1.4481707e+02  -1.4291159e+02  -1.4100610e+02  -1.3910061e+02  -1.3719512e+02  -1.3534113e+02  -1.3348715e+02  -1.3183916e+02  -1.3019117e+02  -1.2854318e+02  -1.2689519e+02  -1.2524720e+02  -1.2359921e+02  -1.2187851e+02  -1.2015782e+02  -1.1836442e+02  -1.1657102e+02  -1.1486881e+02  -1.1316660e+02  -1.1161637e+02  -1.1006614e+02  -1.0824292e+02  -1.0641970e+02  -1.0411873e+02  -1.0181776e+02  -9.9516797e+01  -9.7215831e+01  -9.4914864e+01  -9.2613898e+01  -8.8380120e+01  -8.4146341e+01  -7.9268293e+01  -7.4390244e+01  -7.0141621e+01  -6.5892998e+01  -6.1959087e+01  -5.8025177e+01  -5.4091267e+01  -5.0157356e+01  -4.6741066e+01  -4.3324775e+01  -4.0115533e+01  -3.6906290e+01  -3.3697047e+01  -3.0487805e+01  -2.6980760e+01  -2.3473715e+01  -1.9966670e+01  -1.6459625e+01  -1.2952580e+01  -9.4455346e+00  -5.9384895e+00  -2.4314445e+00  -5.0794064e-02   2.3298564e+00   3.9595771e+00   5.5892977e+00   1.2923564e+01   2.0257831e+01   3.2627538e+01
1.5000000e+02   1.5000000e+02   1.5000000e+02   1.5000000e+02   1.5000000e+02   1.4934898e+02   1.4869797e+02   1.4530877e+02   1.4191956e+02   1.3974408e+02   1.3756860e+02   1.3577570e+02   1.3398280e+02   1.2932791e+02   1.2467303e+02   1.1747875e+02   1.1028448e+02   1.0717429e+02   1.0406410e+02   1.0092609e+02   9.7788085e+01   9.5149997e+01   9.2511909e+01   9.0023633e+01   8.7535358e+01   8.3003910e+01   7.8472461e+01   6.9671901e+01   6.0871341e+01   4.6209365e+01   3.1547389e+01   2.4277862e+01   1.7008335e+01   1.1602977e+01   6.1976199e+00   3.8362144e+00   1.4748089e+00   7.0979767e-01  -5.5213528e-02  -8.2022473e-01  -1.5852359e+00  -3.1931538e-01   9.4660517e-01   3.2904021e-01  -2.8852475e-01  -2.1723002e+00  -4.0560756e+00  -6.0947223e+00  -8.1333691e+00  -1.0635527e+01  -1.3137684e+01  -1.5202838e+01  -1.7267991e+01  -1.9250963e+01  -2.1233935e+01  -2.3216907e+01  -2.5199879e+01  -2.7255701e+01  -2.9311524e+01  -3.1513046e+01  -3.3714568e+01  -3.6358213e+01  -3.9001858e+01  -4.1788207e+01  -4.4574557e+01  -4.7391907e+01  -5.0209257e+01  -5.3026608e+01  -5.5843958e+01  -5.9150383e+01  -6.2456809e+01  -6.5985541e+01  -6.9514274e+01  -7.3043006e+01  -7.6571739e+01  -8.0100471e+01  -8.3629204e+01  -8.7157936e+01  -9.0686669e+01  -9.4215401e+01  -9.7744133e+01  -1.0062056e+02  -1.0349698e+02  -1.0572110e+02  -1.0794521e+02  -1.0921055e+02  -1.1047588e+02  -1.1196704e+02  -1.1345819e+02  -1.1532666e+02  -1.1719512e+02  -1.1929878e+02  -1.2140244e+02  -1.2350610e+02  -1.2560976e+02  -1.2771341e+02  -1.2981707e+02  -1.3159802e+02  -1.3337896e+02  -1.3419175e+02  -1.3500454e+02  -1.3568825e+02  -1.3637195e+02  -1.3705566e+02  -1.3773936e+02  -1.3842307e+02  -1.3910677e+02  -1.3947048e+02  -1.3983418e+02  -1.3995789e+02  -1.4008160e+02  -1.3980531e+02  -1.3952902e+02  -1.3933892e+02  -1.3914883e+02  -1.4068214e+02  -1.4221545e+02  -1.4448735e+02  -1.4675926e+02  -1.4885040e+02  -1.5094154e+02  -1.5073754e+02  -1.5053354e+02  -1.4862805e+02  -1.4672256e+02  -1.4481707e+02  -1.4291159e+02  -1.4100610e+02  -1.3910061e+02  -1.3719512e+02  -1.3528963e+02  -1.3340990e+02  -1.3153016e+02  -1.2983067e+02  -1.2813118e+02  -1.2648319e+02  -1.2483520e+02  -1.2318721e+02  -1.2153922e+02  -1.1985488e+02  -1.1817054e+02  -1.1644984e+02  -1.1472915e+02  -1.1300558e+02  -1.1128201e+02  -1.0964059e+02  -1.0799917e+02  -1.0631245e+02  -1.0462572e+02  -1.0235888e+02  -1.0009204e+02  -9.7791072e+01  -9.5490106e+01  -9.2544869e+01  -8.9599632e+01  -8.5043718e+01  -8.0487805e+01  -7.5609756e+01  -7.0731707e+01  -6.6168371e+01  -6.1605035e+01  -5.7356412e+01  -5.3107789e+01  -4.9173879e+01  -4.5239969e+01  -4.1875440e+01  -3.8510911e+01  -3.5527846e+01  -3.2544780e+01  -2.9787891e+01  -2.7031002e+01  -2.4243335e+01  -2.1455668e+01  -1.8206409e+01  -1.4957149e+01  -1.1408263e+01  -7.8593769e+00  -4.3104907e+00  -7.6160441e-01   2.2240846e+00   5.2097735e+00   1.2110069e+01   1.9010364e+01   2.6752997e+01   3.4495630e+01   4.7026272e+01
1.5000000e+02   1.5000000e+02   1.5000000e+02   1.5000000e+02   1.5000000e+02   1.4869797e+02   1.4739593e+02   1.4079585e+02   1.3419577e+02   1.3021768e+02   1.2623959e+02   1.2409965e+02   1.2195972e+02   1.1957293e+02   1.1718614e+02   1.1009446e+02   1.0300278e+02   1.0046653e+02   9.7930274e+01   9.4390758e+01   9.0851242e+01   8.7878875e+01   8.4906509e+01   8.2522575e+01   8.0138641e+01   7.4209503e+01   6.8280364e+01   6.2029430e+01   5.5778495e+01   3.9108627e+01   2.2438758e+01   1.6833847e+01   1.1228935e+01   5.9287352e+00   6.2853571e-01  -9.2484292e-02  -8.1350430e-01  -1.5345243e+00  -2.2555443e+00  -2.9765643e+00  -3.6975843e+00  -3.6807321e+00  -3.6638799e+00  -3.4983064e+00  -3.3327329e+00  -5.1772730e+00  -7.0218132e+00  -8.9556534e+00  -1.0889494e+01  -1.3253390e+01  -1.5617286e+01  -1.7764619e+01  -1.9911953e+01  -2.1894926e+01  -2.3877898e+01  -2.5860870e+01  -2.7843842e+01  -2.9972514e+01  -3.2101187e+01  -3.4521259e+01  -3.6941332e+01  -3.9411271e+01  -4.1881210e+01  -4.4636559e+01  -4.7391907e+01  -5.0209257e+01  -5.3026608e+01  -5.5843958e+01  -5.8661308e+01  -6.1834350e+01  -6.5007391e+01  -6.8536123e+01  -7.2064856e+01  -7.5593588e+01  -7.9122321e+01  -8.2651053e+01  -8.6179786e+01  -8.9708518e+01  -9.3237251e+01  -9.6765983e+01  -1.0029472e+02  -1.0251883e+02  -1.0474295e+02  -1.0696706e+02  -1.0919118e+02  -1.1050701e+02  -1.1182285e+02  -1.1293669e+02  -1.1405052e+02  -1.1568380e+02  -1.1731707e+02  -1.1942073e+02  -1.2152439e+02  -1.2362805e+02  -1.2573171e+02  -1.2783537e+02  -1.2993902e+02  -1.3204268e+02  -1.3414634e+02  -1.3508822e+02  -1.3603010e+02  -1.3671380e+02  -1.3739751e+02  -1.3808121e+02  -1.3876492e+02  -1.3944862e+02  -1.4013233e+02  -1.4081604e+02  -1.4149974e+02  -1.4218345e+02  -1.4286715e+02  -1.4275086e+02  -1.4263457e+02  -1.4219828e+02  -1.4176198e+02  -1.4255669e+02  -1.4335140e+02  -1.4562331e+02  -1.4789521e+02  -1.5016712e+02  -1.5243902e+02  -1.5053354e+02  -1.4862805e+02  -1.4672256e+02  -1.4481707e+02  -1.4291159e+02  -1.4100610e+02  -1.3910061e+02  -1.3719512e+02  -1.3528963e+02  -1.3338415e+02  -1.3147866e+02  -1.2957317e+02  -1.2782218e+02  -1.2607119e+02  -1.2442320e+02  -1.2277521e+02  -1.2112722e+02  -1.1947924e+02  -1.1783125e+02  -1.1618326e+02  -1.1453527e+02  -1.1288728e+02  -1.1114235e+02  -1.0939742e+02  -1.0766481e+02  -1.0593220e+02  -1.0438198e+02  -1.0283175e+02  -1.0059903e+02  -9.8366314e+01  -9.6065347e+01  -9.3764381e+01  -9.0174873e+01  -8.6585366e+01  -8.1707317e+01  -7.6829268e+01  -7.1951220e+01  -6.7073171e+01  -6.2195122e+01  -5.7317073e+01  -5.2753737e+01  -4.8190401e+01  -4.4256491e+01  -4.0322581e+01  -3.7009814e+01  -3.3697047e+01  -3.0940158e+01  -2.8183269e+01  -2.5878734e+01  -2.3574199e+01  -2.1505910e+01  -1.9437621e+01  -1.6446148e+01  -1.3454674e+01  -9.8639468e+00  -6.2732193e+00  -2.6824918e+00   9.0823568e-01   4.4989632e+00   8.0896906e+00   2.0260560e+01   3.2431430e+01   4.0582429e+01   4.8733428e+01   6.1425006e+01
1.5000000e+02   1.5000000e+02   1.5000000e+02   1.4883755e+02   1.4767510e+02   1.4390610e+02   1.4013710e+02   1.3487551e+02   1.2961392e+02   1.2485185e+02   1.2008977e+02   1.1773383e+02   1.1537788e+02   1.1211619e+02   1.0885450e+02   1.0302957e+02   9.7204643e+01   9.3581043e+01   8.9957443e+01   8.5832344e+01   8.1707244e+01   7.8867422e+01   7.6027599e+01   7.2887172e+01   6.9746746e+01   6.5144851e+01   6.0542957e+01   5.4293531e+01   4.8044105e+01   3.0653399e+01   1.3262693e+01   9.5958154e+00   5.9289379e+00   2.4144165e+00  -1.1001048e+00  -2.0129788e+00  -2.9258527e+00  -3.6468727e+00  -4.3678927e+00  -5.0889127e+00  -5.8099327e+00  -6.5968067e+00  -7.3836807e+00  -6.8803109e+00  -6.3769410e+00  -8.1660016e+00  -9.9550621e+00  -1.1899732e+01  -1.3844402e+01  -1.5998685e+01  -1.8152967e+01  -2.0354442e+01  -2.2555916e+01  -2.4538888e+01  -2.6521861e+01  -2.8650533e+01  -3.0779205e+01  -3.3053578e+01  -3.5327950e+01  -3.7748022e+01  -4.0168095e+01  -4.2619334e+01  -4.5070574e+01  -4.7701918e+01  -5.0333261e+01  -5.3088610e+01  -5.5843958e+01  -5.8661308e+01  -6.1478659e+01  -6.4518316e+01  -6.7557973e+01  -7.1086705e+01  -7.4615438e+01  -7.8144170e+01  -8.1672903e+01  -8.5201635e+01  -8.8730368e+01  -9.2259100e+01  -9.5787833e+01  -9.8664256e+01  -1.0154068e+02  -1.0376480e+02  -1.0598891e+02  -1.0821303e+02  -1.1043714e+02  -1.1192328e+02  -1.1340942e+02  -1.1428365e+02  -1.1515788e+02  -1.1665124e+02  -1.1814460e+02  -1.1993467e+02  -1.2172474e+02  -1.2378920e+02  -1.2585366e+02  -1.2795732e+02  -1.3006098e+02  -1.3216463e+02  -1.3426829e+02  -1.3566197e+02  -1.3705566e+02  -1.3773936e+02  -1.3842307e+02  -1.3910677e+02  -1.3979048e+02  -1.4047418e+02  -1.4115789e+02  -1.4184159e+02  -1.4252530e+02  -1.4320900e+02  -1.4389271e+02  -1.4417642e+02  -1.4446012e+02  -1.4458383e+02  -1.4470754e+02  -1.4496674e+02  -1.4522595e+02  -1.4712856e+02  -1.4903117e+02  -1.5014879e+02  -1.5126642e+02  -1.4914106e+02  -1.4701571e+02  -1.4496365e+02  -1.4291159e+02  -1.4100610e+02  -1.3910061e+02  -1.3719512e+02  -1.3528963e+02  -1.3338415e+02  -1.3147866e+02  -1.2957317e+02  -1.2766768e+02  -1.2583944e+02  -1.2401121e+02  -1.2236322e+02  -1.2071523e+02  -1.1906724e+02  -1.1741925e+02  -1.1577126e+02  -1.1412327e+02  -1.1247528e+02  -1.1082729e+02  -1.0913083e+02  -1.0743437e+02  -1.0574407e+02  -1.0405377e+02  -1.0240928e+02  -1.0076478e+02  -9.8702684e+01  -9.6640589e+01  -9.4017487e+01  -9.1394386e+01  -8.7160607e+01  -8.2926829e+01  -7.8048780e+01  -7.3170732e+01  -6.8292683e+01  -6.3414634e+01  -5.8536585e+01  -5.3658537e+01  -4.8937844e+01  -4.4217152e+01  -3.9811172e+01  -3.5405193e+01  -3.2596542e+01  -2.9787891e+01  -2.7257179e+01  -2.4726466e+01  -2.2421931e+01  -2.0117395e+01  -1.8049107e+01  -1.5980818e+01  -1.3450937e+01  -1.0921056e+01  -7.6299555e+00  -4.3388550e+00  -1.0477545e+00   2.2433460e+00   1.0662915e+01   1.9082485e+01   3.1464854e+01   4.3847223e+01   5.4038413e+01   6.4229602e+01   7.6266048e+01
1.5000000e+02   1.5000000e+02   1.5000000e+02   1.4767510e+02   1.4535020e+02   1.3911423e+02   1.3287826e+02   1.2895517e+02   1.2503207e+02   1.1948601e+02   1.1393996e+02   1.1136800e+02   1.0879604e+02   1.0465945e+02   1.0052286e+02   9.5964683e+01   9.1406509e+01   8.6695560e+01   8.1984611e+01   7.7273929e+01   7.2563247e+01   6.9855968e+01   6.7148689e+01   6.3251770e+01   5.9354850e+01   5.6080200e+01   5.2805549e+01   4.6557632e+01   4.0309715e+01   2.2198171e+01   4.0866274e+00   2.3577842e+00   6.2894103e-01  -1.0999022e+00  -2.8287454e+00  -3.9334732e+00  -5.0382011e+00  -5.7592211e+00  -6.4802411e+00  -7.2012611e+00  -7.9222811e+00  -9.5128813e+00  -1.1103482e+01  -1.0262315e+01  -9.4211492e+00  -1.1154730e+01  -1.2888311e+01  -1.4843810e+01  -1.6799310e+01  -1.8743979e+01  -2.0688649e+01  -2.2944264e+01  -2.5199879e+01  -2.7182851e+01  -2.9165823e+01  -3.1440196e+01  -3.3714568e+01  -3.6134641e+01  -3.8554713e+01  -4.0974786e+01  -4.3394858e+01  -4.5827398e+01  -4.8259937e+01  -5.0767276e+01  -5.3274616e+01  -5.5967962e+01  -5.8661308e+01  -6.1478659e+01  -6.4296009e+01  -6.7202282e+01  -7.0108555e+01  -7.3637288e+01  -7.7166020e+01  -8.0694752e+01  -8.4223485e+01  -8.7752217e+01  -9.1280950e+01  -9.4809682e+01  -9.8338415e+01  -1.0056253e+02  -1.0278665e+02  -1.0501076e+02  -1.0723488e+02  -1.0945899e+02  -1.1168311e+02  -1.1333955e+02  -1.1499599e+02  -1.1563062e+02  -1.1626524e+02  -1.1761868e+02  -1.1897213e+02  -1.2044861e+02  -1.2192509e+02  -1.2395035e+02  -1.2597561e+02  -1.2807927e+02  -1.3018293e+02  -1.3228659e+02  -1.3439024e+02  -1.3623573e+02  -1.3808121e+02  -1.3876492e+02  -1.3944862e+02  -1.4013233e+02  -1.4081604e+02  -1.4149974e+02  -1.4218345e+02  -1.4286715e+02  -1.4355086e+02  -1.4423456e+02  -1.4491827e+02  -1.4560197e+02  -1.4628568e+02  -1.4696938e+02  -1.4765309e+02  -1.4737680e+02  -1.4710050e+02  -1.4863381e+02  -1.5016712e+02  -1.5013046e+02  -1.5009381e+02  -1.4774859e+02  -1.4540338e+02  -1.4320474e+02  -1.4100610e+02  -1.3910061e+02  -1.3719512e+02  -1.3528963e+02  -1.3338415e+02  -1.3147866e+02  -1.2957317e+02  -1.2766768e+02  -1.2576220e+02  -1.2385671e+02  -1.2195122e+02  -1.2030323e+02  -1.1865524e+02  -1.1700725e+02  -1.1535926e+02  -1.1371127e+02  -1.1206328e+02  -1.1041529e+02  -1.0876730e+02  -1.0711931e+02  -1.0547132e+02  -1.0382334e+02  -1.0217535e+02  -1.0043658e+02  -9.8697809e+01  -9.6806337e+01  -9.4914864e+01  -9.1969627e+01  -8.9024390e+01  -8.4146341e+01  -7.9268293e+01  -7.4390244e+01  -6.9512195e+01  -6.4634146e+01  -5.9756098e+01  -5.4878049e+01  -5.0000000e+01  -4.5121951e+01  -4.0243902e+01  -3.5365854e+01  -3.0487805e+01  -2.8183269e+01  -2.5878734e+01  -2.3574199e+01  -2.1269663e+01  -1.8965128e+01  -1.6660592e+01  -1.4592304e+01  -1.2524015e+01  -1.0455726e+01  -8.3874377e+00  -5.3959642e+00  -2.4044907e+00   5.8698285e-01   3.5784564e+00   1.6826868e+01   3.0075279e+01   4.2669147e+01   5.5263015e+01   6.7494396e+01   7.9725776e+01   9.1107089e+01
1.5000000e+02   1.4924381e+02   1.4848762e+02   1.4416734e+02   1.3984707e+02   1.3332320e+02   1.2679932e+02   1.2206428e+02   1.1732923e+02   1.1191567e+02   1.0650211e+02   1.0501111e+02   1.0352011e+02   1.0002714e+02   9.6534179e+01   9.2107486e+01   8.7680793e+01   8.1486648e+01   7.5292503e+01   7.0283607e+01   6.5274711e+01   6.0906015e+01   5.6537319e+01   5.3571979e+01   5.0606639e+01   4.5954197e+01   4.1301755e+01   3.3802091e+01   2.6302427e+01   1.5151017e+01   3.9996081e+00   1.4499543e+00  -1.0996995e+00  -2.8285427e+00  -4.5573859e+00  -5.8120734e+00  -7.0667609e+00  -7.8296752e+00  -8.5925894e+00  -9.3136094e+00  -1.0034629e+01  -1.1538272e+01  -1.3041914e+01  -1.3145205e+01  -1.3248496e+01  -1.4535028e+01  -1.5821560e+01  -1.7777059e+01  -1.9732559e+01  -2.1682643e+01  -2.3632728e+01  -2.5738285e+01  -2.7843842e+01  -3.0045364e+01  -3.2246887e+01  -3.4594109e+01  -3.6941332e+01  -3.9361404e+01  -4.1781477e+01  -4.4201549e+01  -4.6621622e+01  -4.9047928e+01  -5.1474233e+01  -5.3969106e+01  -5.6463979e+01  -5.9064322e+01  -6.1664665e+01  -6.4389012e+01  -6.7113359e+01  -6.9975171e+01  -7.2836983e+01  -7.6276792e+01  -7.9716602e+01  -8.3245334e+01  -8.6774067e+01  -9.0302799e+01  -9.3831532e+01  -9.6707956e+01  -9.9584379e+01  -1.0180849e+02  -1.0403261e+02  -1.0625673e+02  -1.0848084e+02  -1.1070496e+02  -1.1292907e+02  -1.1475581e+02  -1.1658256e+02  -1.1721719e+02  -1.1785181e+02  -1.1894104e+02  -1.2003027e+02  -1.2146984e+02  -1.2290941e+02  -1.2466028e+02  -1.2641115e+02  -1.2835801e+02  -1.3030488e+02  -1.3240854e+02  -1.3451220e+02  -1.3648677e+02  -1.3846134e+02  -1.3946776e+02  -1.4047418e+02  -1.4115789e+02  -1.4184159e+02  -1.4252530e+02  -1.4320900e+02  -1.4389271e+02  -1.4457641e+02  -1.4526012e+02  -1.4594382e+02  -1.4662753e+02  -1.4731124e+02  -1.4799494e+02  -1.4867865e+02  -1.4888235e+02  -1.4908606e+02  -1.5019457e+02  -1.5130307e+02  -1.5011214e+02  -1.4892120e+02  -1.4657598e+02  -1.4423077e+02  -1.4195884e+02  -1.3968691e+02  -1.3756156e+02  -1.3543621e+02  -1.3345743e+02  -1.3147866e+02  -1.2957317e+02  -1.2766768e+02  -1.2576220e+02  -1.2385671e+02  -1.2195122e+02  -1.2004573e+02  -1.1832049e+02  -1.1659525e+02  -1.1494726e+02  -1.1329927e+02  -1.1165129e+02  -1.1000330e+02  -1.0835531e+02  -1.0670732e+02  -1.0505933e+02  -1.0341134e+02  -1.0176335e+02  -1.0011536e+02  -9.8421980e+01  -9.6728601e+01  -9.4958870e+01  -9.3189139e+01  -8.9257827e+01  -8.5326515e+01  -8.0428796e+01  -7.5531078e+01  -7.0633360e+01  -6.5735641e+01  -6.0837923e+01  -5.5940205e+01  -5.1042486e+01  -4.6144768e+01  -4.1247050e+01  -3.6349331e+01  -3.1433668e+01  -2.6518005e+01  -2.4469968e+01  -2.2421931e+01  -2.0117395e+01  -1.7812860e+01  -1.5508325e+01  -1.3203789e+01  -1.1135501e+01  -9.0672119e+00  -6.9989232e+00  -4.9306346e+00  -2.4007535e+00   1.2912763e-01   6.1736486e+00   1.2218170e+01   2.5302890e+01   3.8387611e+01   5.3983665e+01   6.9579719e+01   8.0812208e+01   9.2044696e+01   1.0413034e+02
