7.2083131e+00   3.8255694e+00   4.4699690e-02  -3.7361700e+00  -5.8754185e+00  -8.0146671e+00  -9.5273795e+00  -1.1040092e+01  -1.1928689e+01  -1.2817286e+01  -1.3538306e+01  -1.4259326e+01  -1.5589052e+01  -1.6918779e+01  -1.8411869e+01  -1.9904959e+01  -2.0796508e+01  -2.1688058e+01  -2.3643557e+01  -2.5599057e+01  -2.8006004e+01  -3.0412951e+01  -3.3271347e+01  -3.6129743e+01  -3.7859765e+01  -3.9589788e+01  -4.1492323e+01  -4.3394858e+01  -4.5814931e+01  -4.8235003e+01  -5.0655076e+01  -5.3075148e+01  -5.5495221e+01  -5.7915293e+01  -6.0378999e+01  -6.2842706e+01  -6.5350045e+01  -6.7857385e+01  -7.0426727e+01  -7.2996068e+01  -7.5689414e+01  -7.8382761e+01  -8.1600263e+01  -8.4817766e+01  -8.8346499e+01  -9.1875231e+01  -9.4751655e+01  -9.7628079e+01  -9.9852194e+01  -1.0207631e+02  -1.0430042e+02  -1.0652454e+02  -1.0874865e+02  -1.1097277e+02  -1.1319689e+02  -1.1542100e+02  -1.1753158e+02  -1.1964216e+02  -1.2033356e+02  -1.2102495e+02  -1.2175477e+02  -1.2248460e+02  -1.2369363e+02  -1.2490266e+02  -1.2636683e+02  -1.2783101e+02  -1.2946429e+02  -1.3109756e+02  -1.3292683e+02  -1.3475610e+02  -1.3685976e+02  -1.3896341e+02  -1.4067981e+02  -1.4239621e+02  -1.4314446e+02  -1.4389271e+02  -1.4457641e+02  -1.4526012e+02  -1.4594382e+02  -1.4662753e+02  -1.4731124e+02  -1.4799494e+02  -1.4867865e+02  -1.4936235e+02  -1.5004606e+02  -1.5072976e+02  -1.5087959e+02  -1.5102942e+02  -1.5064537e+02  -1.5026132e+02  -1.4814505e+02  -1.4602877e+02  -1.4383990e+02  -1.4165103e+02  -1.3942308e+02  -1.3719512e+02  -1.3484991e+02  -1.3250469e+02  -1.3030605e+02  -1.2810741e+02  -1.2598206e+02  -1.2385671e+02  -1.2195122e+02  -1.2004573e+02  -1.1814024e+02  -1.1623476e+02  -1.1438077e+02  -1.1252678e+02  -1.1085304e+02  -1.0917930e+02  -1.0753131e+02  -1.0588332e+02  -1.0423533e+02  -1.0258734e+02  -1.0093935e+02  -9.9291365e+01  -9.7643375e+01  -9.5995386e+01  -9.4077023e+01  -9.2158660e+01  -8.9429178e+01  -8.6699695e+01  -8.2197212e+01  -7.7694729e+01  -7.2777341e+01  -6.7859953e+01  -6.2942565e+01  -5.8025177e+01  -5.3107789e+01  -4.8190401e+01  -4.3273013e+01  -3.8355625e+01  -3.3424779e+01  -2.8493933e+01  -2.3536169e+01  -1.8578405e+01  -1.6374556e+01  -1.4170707e+01  -1.2534980e+01  -1.0899254e+01  -8.5947184e+00  -6.2901830e+00  -4.2218943e+00  -2.1536056e+00  -3.3167605e-01   1.4902535e+00   6.1075838e+00   1.0724914e+01   1.9392807e+01   2.8060701e+01   4.0592499e+01   5.3124298e+01   7.2111160e+01   9.1098022e+01   1.0182143e+02   1.1254484e+02   1.2517771e+02   1.3781059e+02   1.4753085e+02   1.5725111e+02   1.6403599e+02   1.7082088e+02   1.7684867e+02   1.8287646e+02   1.8680419e+02   1.9073193e+02   1.9567600e+02   2.0062007e+02   2.0677993e+02   2.1293980e+02   2.1613116e+02   2.1932252e+02   2.2018454e+02   2.2104655e+02   2.2447868e+02   2.2791081e+02   2.3252102e+02   2.3713123e+02   2.3778251e+02   2.3843379e+02   2.3773688e+02   2.3703996e+02   2.3701293e+02   2.3698590e+02   2.3740131e+02   2.3781673e+02
6.3127625e+00   3.7385501e+00  -4.5272496e-01  -4.6440000e+00  -7.1936538e+00  -9.7433076e+00  -1.1364085e+01  -1.2984863e+01  -1.3957249e+01  -1.4929635e+01  -1.5650655e+01  -1.6371675e+01  -1.7614443e+01  -1.8857211e+01  -2.0795643e+01  -2.2734076e+01  -2.3677691e+01  -2.4621307e+01  -2.6576806e+01  -2.8532306e+01  -3.1390701e+01  -3.4249097e+01  -3.8010388e+01  -4.1771680e+01  -4.2811653e+01  -4.3851626e+01  -4.5236624e+01  -4.6621622e+01  -4.9041694e+01  -5.1461767e+01  -5.3881839e+01  -5.6301912e+01  -5.8721984e+01  -6.1142057e+01  -6.3587063e+01  -6.6032069e+01  -6.8539408e+01  -7.1046748e+01  -7.3554088e+01  -7.6061427e+01  -7.8630769e+01  -8.1200111e+01  -8.4284229e+01  -8.7368348e+01  -9.0897081e+01  -9.4425813e+01  -9.6649928e+01  -9.8874044e+01  -1.0109816e+02  -1.0332227e+02  -1.0554639e+02  -1.0777050e+02  -1.0999462e+02  -1.1221874e+02  -1.1444285e+02  -1.1666697e+02  -1.1889108e+02  -1.2111520e+02  -1.2186336e+02  -1.2261152e+02  -1.2324615e+02  -1.2388078e+02  -1.2489618e+02  -1.2591159e+02  -1.2736346e+02  -1.2881533e+02  -1.3029181e+02  -1.3176829e+02  -1.3332317e+02  -1.3487805e+02  -1.3698171e+02  -1.3908537e+02  -1.4118902e+02  -1.4329268e+02  -1.4410547e+02  -1.4491827e+02  -1.4560197e+02  -1.4628568e+02  -1.4696938e+02  -1.4765309e+02  -1.4833679e+02  -1.4902050e+02  -1.4970420e+02  -1.5038791e+02  -1.5107161e+02  -1.5175532e+02  -1.5137127e+02  -1.5098722e+02  -1.4953542e+02  -1.4808362e+02  -1.4619628e+02  -1.4430894e+02  -1.4227642e+02  -1.4024390e+02  -1.3813321e+02  -1.3602251e+02  -1.3367730e+02  -1.3133208e+02  -1.2898687e+02  -1.2664165e+02  -1.2429644e+02  -1.2195122e+02  -1.2004573e+02  -1.1814024e+02  -1.1623476e+02  -1.1432927e+02  -1.1242378e+02  -1.1051829e+02  -1.0881880e+02  -1.0711931e+02  -1.0547132e+02  -1.0382334e+02  -1.0217535e+02  -1.0052736e+02  -9.8879367e+01  -9.7231378e+01  -9.5583388e+01  -9.3935399e+01  -9.1746663e+01  -8.9557927e+01  -8.5746951e+01  -8.1935976e+01  -7.7848397e+01  -7.3760818e+01  -6.8843430e+01  -6.3926042e+01  -5.9008655e+01  -5.4091267e+01  -4.9173879e+01  -4.4256491e+01  -3.9339103e+01  -3.4421715e+01  -2.9477410e+01  -2.4533105e+01  -1.9570855e+01  -1.4608606e+01  -1.1992446e+01  -9.3762860e+00  -8.4093684e+00  -7.4424507e+00  -5.1379153e+00  -2.8333799e+00  -7.6509119e-01   1.3031975e+00   2.8787680e+00   4.4543385e+00   1.1620710e+01   1.8787082e+01   2.7025300e+01   3.5263519e+01   4.7406085e+01   5.9548652e+01   7.8924137e+01   9.8299621e+01   1.0951284e+02   1.2072606e+02   1.3320184e+02   1.4567763e+02   1.5508253e+02   1.6448743e+02   1.6975416e+02   1.7502089e+02   1.8126118e+02   1.8750148e+02   1.9051881e+02   1.9353615e+02   1.9921547e+02   2.0489479e+02   2.1097419e+02   2.1705359e+02   2.2012051e+02   2.2318742e+02   2.2451462e+02   2.2584181e+02   2.2962965e+02   2.3341750e+02   2.3759753e+02   2.4177757e+02   2.4231232e+02   2.4284706e+02   2.4285529e+02   2.4286351e+02   2.4320192e+02   2.4354033e+02   2.4512761e+02   2.4671489e+02
4.3626561e+00   2.0344681e+00  -1.3482756e+00  -4.7310193e+00  -8.1014837e+00  -1.1471948e+01  -1.3146759e+01  -1.4821569e+01  -1.5847988e+01  -1.6874406e+01  -1.7679214e+01  -1.8484023e+01  -1.9639833e+01  -2.0795643e+01  -2.2734076e+01  -2.4672508e+01  -2.6113532e+01  -2.7554556e+01  -3.0412951e+01  -3.3271347e+01  -3.6581191e+01  -3.9891034e+01  -4.3652326e+01  -4.7413618e+01  -4.8453591e+01  -4.9493564e+01  -5.0706049e+01  -5.1918534e+01  -5.3648557e+01  -5.5378580e+01  -5.7453627e+01  -5.9528675e+01  -6.1948748e+01  -6.4368820e+01  -6.6801359e+01  -6.9233899e+01  -7.1735005e+01  -7.4236111e+01  -7.6743451e+01  -7.9250790e+01  -8.1789131e+01  -8.4327472e+01  -8.7123201e+01  -8.9918930e+01  -9.2795354e+01  -9.5671778e+01  -9.7895893e+01  -1.0012001e+02  -1.0234412e+02  -1.0456824e+02  -1.0679235e+02  -1.0901647e+02  -1.1124058e+02  -1.1346470e+02  -1.1568882e+02  -1.1791293e+02  -1.2013705e+02  -1.2236116e+02  -1.2327963e+02  -1.2419809e+02  -1.2483272e+02  -1.2546735e+02  -1.2629236e+02  -1.2711738e+02  -1.2845851e+02  -1.2979965e+02  -1.3127613e+02  -1.3275261e+02  -1.3426829e+02  -1.3578397e+02  -1.3757404e+02  -1.3936411e+02  -1.4138937e+02  -1.4341463e+02  -1.4467923e+02  -1.4594382e+02  -1.4662753e+02  -1.4731124e+02  -1.4799494e+02  -1.4867865e+02  -1.4936235e+02  -1.5004606e+02  -1.5072976e+02  -1.5141347e+02  -1.5102942e+02  -1.5064537e+02  -1.4972745e+02  -1.4880952e+02  -1.4735772e+02  -1.4590592e+02  -1.4409117e+02  -1.4227642e+02  -1.4024390e+02  -1.3821138e+02  -1.3613977e+02  -1.3406817e+02  -1.3187930e+02  -1.2969043e+02  -1.2750156e+02  -1.2531270e+02  -1.2304565e+02  -1.2077861e+02  -1.1865326e+02  -1.1652791e+02  -1.1447584e+02  -1.1242378e+02  -1.1051829e+02  -1.0861280e+02  -1.0683607e+02  -1.0505933e+02  -1.0341134e+02  -1.0176335e+02  -1.0011536e+02  -9.8467370e+01  -9.6819380e+01  -9.5171391e+01  -9.2982655e+01  -9.0793919e+01  -8.7794063e+01  -8.4794207e+01  -8.0983232e+01  -7.7172256e+01  -7.3222979e+01  -6.9273702e+01  -6.4632917e+01  -5.9992132e+01  -5.5074744e+01  -5.0157356e+01  -4.5239969e+01  -4.0322581e+01  -3.5396220e+01  -3.0469860e+01  -2.5516583e+01  -2.0563305e+01  -1.5601056e+01  -1.0638806e+01  -7.6316311e+00  -4.6244563e+00  -3.6362430e+00  -2.6480298e+00  -1.0123033e+00   6.2342326e-01   2.1989938e+00   3.7745643e+00   5.1037757e+00   6.4329872e+00   1.5237810e+01   2.4042633e+01   3.3486145e+01   4.2929656e+01   5.4545953e+01   6.6162250e+01   8.1874214e+01   9.7586177e+01   1.1181191e+02   1.2603764e+02   1.3858999e+02   1.5114233e+02   1.5934483e+02   1.6754732e+02   1.7358632e+02   1.7962533e+02   1.8504279e+02   1.9046024e+02   1.9498203e+02   1.9950381e+02   2.0501527e+02   2.1052673e+02   2.1595354e+02   2.2138036e+02   2.2354681e+02   2.2571327e+02   2.2724761e+02   2.2878195e+02   2.3230331e+02   2.3582466e+02   2.3960538e+02   2.4338609e+02   2.4467518e+02   2.4596426e+02   2.4606093e+02   2.4615759e+02   2.4705494e+02   2.4795229e+02   2.4964141e+02   2.5133054e+02
2.4125497e+00   3.3038624e-01  -2.2438262e+00  -4.8180387e+00  -9.0093137e+00  -1.3200589e+01  -1.4929432e+01  -1.6658275e+01  -1.7738726e+01  -1.8819177e+01  -1.9707774e+01  -2.0596371e+01  -2.1665223e+01  -2.2734076e+01  -2.4672508e+01  -2.6610940e+01  -2.8549373e+01  -3.0487805e+01  -3.4249097e+01  -3.8010388e+01  -4.1771680e+01  -4.5532972e+01  -4.9294264e+01  -5.3055556e+01  -5.4095528e+01  -5.5135501e+01  -5.6175474e+01  -5.7215447e+01  -5.8255420e+01  -5.9295393e+01  -6.1025416e+01  -6.2755438e+01  -6.5175511e+01  -6.7595583e+01  -7.0015656e+01  -7.2435728e+01  -7.4930601e+01  -7.7425474e+01  -7.9932814e+01  -8.2440154e+01  -8.4947493e+01  -8.7454833e+01  -8.9962173e+01  -9.2469512e+01  -9.4693627e+01  -9.6917743e+01  -9.9141858e+01  -1.0136597e+02  -1.0359009e+02  -1.0581420e+02  -1.0803832e+02  -1.1026243e+02  -1.1248655e+02  -1.1471066e+02  -1.1693478e+02  -1.1915890e+02  -1.2138301e+02  -1.2360713e+02  -1.2469589e+02  -1.2578466e+02  -1.2641929e+02  -1.2705392e+02  -1.2768854e+02  -1.2832317e+02  -1.2955357e+02  -1.3078397e+02  -1.3226045e+02  -1.3373693e+02  -1.3521341e+02  -1.3668990e+02  -1.3816638e+02  -1.3964286e+02  -1.4158972e+02  -1.4353659e+02  -1.4525298e+02  -1.4696938e+02  -1.4765309e+02  -1.4833679e+02  -1.4902050e+02  -1.4970420e+02  -1.5038791e+02  -1.5107161e+02  -1.5175532e+02  -1.5243902e+02  -1.5098722e+02  -1.4953542e+02  -1.4808362e+02  -1.4663182e+02  -1.4518002e+02  -1.4372822e+02  -1.4198606e+02  -1.4024390e+02  -1.3821138e+02  -1.3617886e+02  -1.3414634e+02  -1.3211382e+02  -1.3008130e+02  -1.2804878e+02  -1.2601626e+02  -1.2398374e+02  -1.2179487e+02  -1.1960600e+02  -1.1726079e+02  -1.1491557e+02  -1.1271693e+02  -1.1051829e+02  -1.0861280e+02  -1.0670732e+02  -1.0485333e+02  -1.0299934e+02  -1.0135135e+02  -9.9703362e+01  -9.8055372e+01  -9.6407383e+01  -9.4759394e+01  -9.3111404e+01  -9.0381922e+01  -8.7652439e+01  -8.3841463e+01  -8.0030488e+01  -7.6219512e+01  -7.2408537e+01  -6.8597561e+01  -6.4786585e+01  -6.0422404e+01  -5.6058222e+01  -5.1140834e+01  -4.6223446e+01  -4.1306058e+01  -3.6388670e+01  -3.1453338e+01  -2.6518005e+01  -2.1555755e+01  -1.6593506e+01  -1.1631256e+01  -6.6690061e+00  -3.2708163e+00   1.2737352e-01   1.1368823e+00   2.1463910e+00   3.1133087e+00   4.0802264e+00   5.1630787e+00   6.2459311e+00   7.3287835e+00   8.4116358e+00   1.8854909e+01   2.9298183e+01   3.9946989e+01   5.0595794e+01   6.1685821e+01   7.2775848e+01   8.4824291e+01   9.6872734e+01   1.1411098e+02   1.3134923e+02   1.4397813e+02   1.5660704e+02   1.6360712e+02   1.7060721e+02   1.7741849e+02   1.8422977e+02   1.8882439e+02   1.9341901e+02   1.9944524e+02   2.0547148e+02   2.1081508e+02   2.1615868e+02   2.2093290e+02   2.2570712e+02   2.2697312e+02   2.2823912e+02   2.2998061e+02   2.3172209e+02   2.3497696e+02   2.3823183e+02   2.4161322e+02   2.4499461e+02   2.4703804e+02   2.4908147e+02   2.4926657e+02   2.4945167e+02   2.5090796e+02   2.5236424e+02   2.5415521e+02   2.5594618e+02
-5.2165472e-01  -2.3577937e+00  -4.4399571e+00  -6.5221206e+00  -9.9048643e+00  -1.3287608e+01  -1.5837262e+01  -1.8386916e+01  -1.9575432e+01  -2.0763948e+01  -2.1694440e+01  -2.2624931e+01  -2.3648720e+01  -2.4672508e+01  -2.6610940e+01  -2.8549373e+01  -3.2057461e+01  -3.5565549e+01  -3.9608937e+01  -4.3652326e+01  -4.7413618e+01  -5.1174910e+01  -5.4936201e+01  -5.8697493e+01  -5.9737466e+01  -6.0777439e+01  -6.1817412e+01  -6.2857385e+01  -6.3897358e+01  -6.4937331e+01  -6.6322328e+01  -6.7707326e+01  -6.9437349e+01  -7.1167372e+01  -7.3414932e+01  -7.5662492e+01  -7.8138665e+01  -8.0614837e+01  -8.3122177e+01  -8.5629517e+01  -8.7895903e+01  -9.0162289e+01  -9.2187722e+01  -9.4213155e+01  -9.6196691e+01  -9.8180227e+01  -1.0039608e+02  -1.0261194e+02  -1.0483605e+02  -1.0706017e+02  -1.0928428e+02  -1.1150840e+02  -1.1373251e+02  -1.1595663e+02  -1.1818074e+02  -1.2040486e+02  -1.2262898e+02  -1.2485309e+02  -1.2611216e+02  -1.2737123e+02  -1.2800586e+02  -1.2864048e+02  -1.2927511e+02  -1.2990974e+02  -1.3093745e+02  -1.3196516e+02  -1.3334321e+02  -1.3472125e+02  -1.3619774e+02  -1.3767422e+02  -1.3915070e+02  -1.4062718e+02  -1.4233885e+02  -1.4405052e+02  -1.4576456e+02  -1.4747859e+02  -1.4842047e+02  -1.4936235e+02  -1.5004606e+02  -1.5072976e+02  -1.5087959e+02  -1.5102942e+02  -1.5064537e+02  -1.5026132e+02  -1.4880952e+02  -1.4735772e+02  -1.4590592e+02  -1.4445412e+02  -1.4300232e+02  -1.4155052e+02  -1.3988095e+02  -1.3821138e+02  -1.3617886e+02  -1.3414634e+02  -1.3211382e+02  -1.3008130e+02  -1.2804878e+02  -1.2601626e+02  -1.2398374e+02  -1.2195122e+02  -1.1984053e+02  -1.1772983e+02  -1.1554096e+02  -1.1335210e+02  -1.1123652e+02  -1.0912093e+02  -1.0703467e+02  -1.0494841e+02  -1.0299538e+02  -1.0104235e+02  -9.9342864e+01  -9.7643375e+01  -9.5995386e+01  -9.4347396e+01  -9.1888287e+01  -8.9429178e+01  -8.6158949e+01  -8.2888720e+01  -7.9077744e+01  -7.5266768e+01  -7.1455793e+01  -6.7644817e+01  -6.3833841e+01  -6.0022866e+01  -5.5935287e+01  -5.1847708e+01  -4.7068622e+01  -4.2289536e+01  -3.7367662e+01  -3.2445788e+01  -2.7496996e+01  -2.2548205e+01  -1.7585956e+01  -1.2623706e+01  -7.6614560e+00  -2.6992063e+00   1.0899985e+00   4.8792033e+00   5.9100076e+00   6.9408119e+00   9.7346755e+00   1.2528539e+01   1.1463884e+01   1.0399229e+01   1.6172008e+01   2.1944786e+01   2.9073941e+01   3.6203096e+01   4.5223322e+01   5.4243549e+01   6.4558547e+01   7.4873546e+01   8.7610607e+01   1.0034767e+02   1.1601660e+02   1.3168554e+02   1.4346102e+02   1.5523650e+02   1.6403445e+02   1.7283241e+02   1.7986634e+02   1.8690028e+02   1.9274567e+02   1.9859106e+02   2.0415068e+02   2.0971030e+02   2.1480589e+02   2.1990148e+02   2.2377611e+02   2.2765075e+02   2.2933435e+02   2.3101796e+02   2.3332681e+02   2.3563567e+02   2.3965717e+02   2.4367868e+02   2.4657201e+02   2.4946535e+02   2.5126758e+02   2.5306981e+02   2.5429678e+02   2.5552376e+02   2.5677289e+02   2.5802202e+02   2.5983363e+02   2.6164525e+02
-3.4558591e+00  -5.0459736e+00  -6.6360880e+00  -8.2262025e+00  -1.0800415e+01  -1.3374627e+01  -1.6745092e+01  -2.0115556e+01  -2.1412138e+01  -2.2708720e+01  -2.3681105e+01  -2.4653491e+01  -2.5632216e+01  -2.6610940e+01  -2.8549373e+01  -3.0487805e+01  -3.5565549e+01  -4.0643293e+01  -4.4968778e+01  -4.9294264e+01  -5.3055556e+01  -5.6816847e+01  -6.0578139e+01  -6.4339431e+01  -6.5379404e+01  -6.6419377e+01  -6.7459350e+01  -6.8499322e+01  -6.9539295e+01  -7.0579268e+01  -7.1619241e+01  -7.2659214e+01  -7.3699187e+01  -7.4739160e+01  -7.6814208e+01  -7.8889255e+01  -8.1346728e+01  -8.3804201e+01  -8.6311540e+01  -8.8818880e+01  -9.0844313e+01  -9.2869746e+01  -9.4413272e+01  -9.5956798e+01  -9.7699755e+01  -9.9442711e+01  -1.0165031e+02  -1.0385790e+02  -1.0608202e+02  -1.0830613e+02  -1.1053025e+02  -1.1275436e+02  -1.1497848e+02  -1.1720259e+02  -1.1942671e+02  -1.2165082e+02  -1.2387494e+02  -1.2609906e+02  -1.2752843e+02  -1.2895780e+02  -1.2959243e+02  -1.3022705e+02  -1.3086168e+02  -1.3149631e+02  -1.3232133e+02  -1.3314634e+02  -1.3442596e+02  -1.3570557e+02  -1.3718206e+02  -1.3865854e+02  -1.4013502e+02  -1.4161150e+02  -1.4308798e+02  -1.4456446e+02  -1.4627613e+02  -1.4798780e+02  -1.4918786e+02  -1.5038791e+02  -1.5107161e+02  -1.5175532e+02  -1.5137127e+02  -1.5098722e+02  -1.4953542e+02  -1.4808362e+02  -1.4663182e+02  -1.4518002e+02  -1.4372822e+02  -1.4227642e+02  -1.4082462e+02  -1.3937282e+02  -1.3777584e+02  -1.3617886e+02  -1.3414634e+02  -1.3211382e+02  -1.3008130e+02  -1.2804878e+02  -1.2601626e+02  -1.2398374e+02  -1.2195122e+02  -1.1991870e+02  -1.1788618e+02  -1.1585366e+02  -1.1382114e+02  -1.1178862e+02  -1.0975610e+02  -1.0772358e+02  -1.0545654e+02  -1.0318949e+02  -1.0113743e+02  -9.9085366e+01  -9.7334377e+01  -9.5583388e+01  -9.3935399e+01  -9.2287409e+01  -8.9017180e+01  -8.5746951e+01  -8.1935976e+01  -7.8125000e+01  -7.4314024e+01  -7.0503049e+01  -6.6692073e+01  -6.2881098e+01  -5.9070122e+01  -5.5259146e+01  -5.1448171e+01  -4.7637195e+01  -4.2996410e+01  -3.8355625e+01  -3.3429265e+01  -2.8502905e+01  -2.3540655e+01  -1.8578405e+01  -1.3616156e+01  -8.6539060e+00  -3.6916562e+00   1.2705935e+00   5.4508133e+00   9.6310331e+00   1.0683133e+01   1.1735233e+01   1.6356042e+01   2.0976852e+01   1.7764690e+01   1.4552528e+01   2.5015232e+01   3.5477935e+01   3.9292972e+01   4.3108009e+01   5.0499656e+01   5.7891304e+01   6.7431274e+01   7.6971244e+01   9.0396923e+01   1.0382260e+02   1.1792223e+02   1.3202185e+02   1.4294390e+02   1.5386595e+02   1.6446178e+02   1.7505762e+02   1.8231420e+02   1.8957079e+02   1.9666695e+02   2.0376312e+02   2.0885612e+02   2.1394911e+02   2.1879670e+02   2.2364429e+02   2.2661933e+02   2.2959438e+02   2.3169559e+02   2.3379680e+02   2.3667302e+02   2.3954924e+02   2.4433739e+02   2.4912553e+02   2.5153081e+02   2.5393608e+02   2.5549712e+02   2.5705815e+02   2.5932700e+02   2.6159584e+02   2.6263782e+02   2.6367979e+02   2.6551205e+02   2.6734431e+02
-6.6360880e+00  -8.2262025e+00  -9.8163170e+00  -1.1406431e+01  -1.3488595e+01  -1.5570758e+01  -1.8297072e+01  -2.1023386e+01  -2.2838439e+01  -2.4653491e+01  -2.5625877e+01  -2.6598262e+01  -2.7573817e+01  -2.8549373e+01  -3.2057461e+01  -3.5565549e+01  -4.0643293e+01  -4.5721037e+01  -5.0328619e+01  -5.4936201e+01  -5.8697493e+01  -6.2458785e+01  -6.6220077e+01  -6.9981369e+01  -7.1021341e+01  -7.2061314e+01  -7.3101287e+01  -7.4141260e+01  -7.5181233e+01  -7.6221206e+01  -7.7261179e+01  -7.8301152e+01  -7.9341125e+01  -8.0381098e+01  -8.1938608e+01  -8.3496118e+01  -8.5244841e+01  -8.6993564e+01  -8.9018997e+01  -9.1044430e+01  -9.2828909e+01  -9.4613389e+01  -9.6156915e+01  -9.7700441e+01  -9.9343682e+01  -1.0098692e+02  -1.0306192e+02  -1.0513691e+02  -1.0734450e+02  -1.0955210e+02  -1.1177621e+02  -1.1400033e+02  -1.1622444e+02  -1.1844856e+02  -1.2067267e+02  -1.2289679e+02  -1.2512091e+02  -1.2734502e+02  -1.2894469e+02  -1.3054437e+02  -1.3117900e+02  -1.3181362e+02  -1.3244825e+02  -1.3308288e+02  -1.3381270e+02  -1.3454252e+02  -1.3569003e+02  -1.3683754e+02  -1.3824020e+02  -1.3964286e+02  -1.4111934e+02  -1.4259582e+02  -1.4407230e+02  -1.4554878e+02  -1.4714286e+02  -1.4873693e+02  -1.5007520e+02  -1.5141347e+02  -1.5102942e+02  -1.5064537e+02  -1.4972745e+02  -1.4880952e+02  -1.4735772e+02  -1.4590592e+02  -1.4445412e+02  -1.4300232e+02  -1.4155052e+02  -1.4009872e+02  -1.3864692e+02  -1.3719512e+02  -1.3567073e+02  -1.3414634e+02  -1.3211382e+02  -1.3008130e+02  -1.2804878e+02  -1.2601626e+02  -1.2398374e+02  -1.2195122e+02  -1.1991870e+02  -1.1788618e+02  -1.1585366e+02  -1.1382114e+02  -1.1178862e+02  -1.0975610e+02  -1.0772358e+02  -1.0569106e+02  -1.0354128e+02  -1.0139149e+02  -9.9349203e+01  -9.7306911e+01  -9.5415156e+01  -9.3523401e+01  -9.0793919e+01  -8.8064436e+01  -8.4523834e+01  -8.0983232e+01  -7.7172256e+01  -7.3361280e+01  -6.9550305e+01  -6.5739329e+01  -6.1928354e+01  -5.8117378e+01  -5.4306402e+01  -5.0495427e+01  -4.6684451e+01  -4.2873476e+01  -3.8647595e+01  -3.4421715e+01  -2.9477410e+01  -2.4533105e+01  -1.9570855e+01  -1.4608606e+01  -9.6463559e+00  -4.6841062e+00   2.7814358e-01   5.2403933e+00   9.8116281e+00   1.4382863e+01   1.5919964e+01   1.7457065e+01   2.2948226e+01   2.8439388e+01   2.5441415e+01   2.2443443e+01   3.2177207e+01   4.1910972e+01   4.8000740e+01   5.4090507e+01   6.2539733e+01   7.0988960e+01   7.8189073e+01   8.5389186e+01   9.9427839e+01   1.1346649e+02   1.2426454e+02   1.3506258e+02   1.4552076e+02   1.5597894e+02   1.6682189e+02   1.7766483e+02   1.8487985e+02   1.9209486e+02   1.9888768e+02   2.0568050e+02   2.1054655e+02   2.1541260e+02   2.2011770e+02   2.2482281e+02   2.2833213e+02   2.3184145e+02   2.3456971e+02   2.3729797e+02   2.4145925e+02   2.4562053e+02   2.5007985e+02   2.5453917e+02   2.5756314e+02   2.6058711e+02   2.6238320e+02   2.6417929e+02   2.6579627e+02   2.6741325e+02   2.6912760e+02   2.7084195e+02   2.7381737e+02   2.7679279e+02
-9.8163170e+00  -1.1406431e+01  -1.2996546e+01  -1.4586660e+01  -1.6176775e+01  -1.7766889e+01  -1.9849053e+01  -2.1931216e+01  -2.4264739e+01  -2.6598262e+01  -2.7570648e+01  -2.8543034e+01  -2.9515419e+01  -3.0487805e+01  -3.5565549e+01  -4.0643293e+01  -4.5721037e+01  -5.0798780e+01  -5.5688460e+01  -6.0578139e+01  -6.4339431e+01  -6.8100723e+01  -7.1862014e+01  -7.5623306e+01  -7.6663279e+01  -7.7703252e+01  -7.8743225e+01  -7.9783198e+01  -8.0823171e+01  -8.1863144e+01  -8.2903117e+01  -8.3943089e+01  -8.4983062e+01  -8.6023035e+01  -8.7063008e+01  -8.8102981e+01  -8.9142954e+01  -9.0182927e+01  -9.1726453e+01  -9.3269979e+01  -9.4813505e+01  -9.6357032e+01  -9.7900558e+01  -9.9444084e+01  -1.0098761e+02  -1.0253114e+02  -1.0447352e+02  -1.0641591e+02  -1.0860699e+02  -1.1079806e+02  -1.1302218e+02  -1.1524629e+02  -1.1747041e+02  -1.1969452e+02  -1.2191864e+02  -1.2414275e+02  -1.2636687e+02  -1.2859099e+02  -1.3036096e+02  -1.3213094e+02  -1.3276556e+02  -1.3340019e+02  -1.3403482e+02  -1.3466945e+02  -1.3530408e+02  -1.3593870e+02  -1.3695411e+02  -1.3796951e+02  -1.3929834e+02  -1.4062718e+02  -1.4210366e+02  -1.4358014e+02  -1.4505662e+02  -1.4653310e+02  -1.4800958e+02  -1.4948606e+02  -1.5096254e+02  -1.5243902e+02  -1.5098722e+02  -1.4953542e+02  -1.4808362e+02  -1.4663182e+02  -1.4518002e+02  -1.4372822e+02  -1.4227642e+02  -1.4082462e+02  -1.3937282e+02  -1.3792102e+02  -1.3646922e+02  -1.3501742e+02  -1.3356562e+02  -1.3211382e+02  -1.3008130e+02  -1.2804878e+02  -1.2601626e+02  -1.2398374e+02  -1.2195122e+02  -1.1991870e+02  -1.1788618e+02  -1.1585366e+02  -1.1382114e+02  -1.1178862e+02  -1.0975610e+02  -1.0772358e+02  -1.0569106e+02  -1.0365854e+02  -1.0162602e+02  -9.9593496e+01  -9.7560976e+01  -9.5528455e+01  -9.3495935e+01  -9.1463415e+01  -8.7652439e+01  -8.3841463e+01  -8.0030488e+01  -7.6219512e+01  -7.2408537e+01  -6.8597561e+01  -6.4786585e+01  -6.0975610e+01  -5.7164634e+01  -5.3353659e+01  -4.9542683e+01  -4.5731707e+01  -4.1920732e+01  -3.8109756e+01  -3.4298780e+01  -3.0487805e+01  -2.5525555e+01  -2.0563305e+01  -1.5601056e+01  -1.0638806e+01  -5.6765561e+00  -7.1430637e-01   4.2479434e+00   9.2101931e+00   1.4172443e+01   1.9134693e+01   2.1156795e+01   2.3178897e+01   2.9540410e+01   3.5901924e+01   3.3118141e+01   3.0334358e+01   3.9339183e+01   4.8344009e+01   5.6708507e+01   6.5073005e+01   7.4579811e+01   8.4086616e+01   8.8946872e+01   9.3807128e+01   1.0845875e+02   1.2311038e+02   1.3060685e+02   1.3810332e+02   1.4809763e+02   1.5809193e+02   1.6918199e+02   1.8027205e+02   1.8744550e+02   1.9461894e+02   2.0110841e+02   2.0759787e+02   2.1223698e+02   2.1687608e+02   2.2143870e+02   2.2600133e+02   2.3004492e+02   2.3408852e+02   2.3744383e+02   2.4079915e+02   2.4624548e+02   2.5169182e+02   2.5582231e+02   2.5995280e+02   2.6359547e+02   2.6723814e+02   2.6926929e+02   2.7130043e+02   2.7226555e+02   2.7323067e+02   2.7561739e+02   2.7800410e+02   2.8212268e+02   2.8624126e+02
-1.2800611e+01  -1.4586660e+01  -1.6176775e+01  -1.7766889e+01  -1.9357004e+01  -2.0947118e+01  -2.2783257e+01  -2.4619396e+01  -2.6581215e+01  -2.8543034e+01  -3.0738337e+01  -3.2933640e+01  -3.5128943e+01  -3.7324247e+01  -4.1522642e+01  -4.5721037e+01  -5.0798780e+01  -5.5876524e+01  -6.0860236e+01  -6.5843948e+01  -6.9793304e+01  -7.3742660e+01  -7.7503952e+01  -8.1265244e+01  -8.2305217e+01  -8.3345190e+01  -8.4385163e+01  -8.5425136e+01  -8.6465108e+01  -8.7505081e+01  -8.8545054e+01  -8.9585027e+01  -9.0625000e+01  -9.1664973e+01  -9.2296179e+01  -9.2927384e+01  -9.2945439e+01  -9.2963493e+01  -9.3983292e+01  -9.5003090e+01  -9.6551882e+01  -9.8100675e+01  -9.9644201e+01  -1.0118773e+02  -1.0273125e+02  -1.0427478e+02  -1.0604266e+02  -1.0781055e+02  -1.0995207e+02  -1.1209359e+02  -1.1429292e+02  -1.1649226e+02  -1.1871637e+02  -1.2094049e+02  -1.2316460e+02  -1.2538872e+02  -1.2761283e+02  -1.2983695e+02  -1.3177723e+02  -1.3371751e+02  -1.3435213e+02  -1.3498676e+02  -1.3562139e+02  -1.3625602e+02  -1.3689065e+02  -1.3752527e+02  -1.3835029e+02  -1.3917530e+02  -1.4044262e+02  -1.4170993e+02  -1.4313720e+02  -1.4456446e+02  -1.4604094e+02  -1.4751742e+02  -1.4899390e+02  -1.5047038e+02  -1.5065239e+02  -1.5083440e+02  -1.4909606e+02  -1.4735772e+02  -1.4590592e+02  -1.4445412e+02  -1.4300232e+02  -1.4155052e+02  -1.4009872e+02  -1.3864692e+02  -1.3719512e+02  -1.3574332e+02  -1.3429152e+02  -1.3283972e+02  -1.3138792e+02  -1.2993612e+02  -1.2797619e+02  -1.2601626e+02  -1.2398374e+02  -1.2195122e+02  -1.1991870e+02  -1.1788618e+02  -1.1585366e+02  -1.1382114e+02  -1.1178862e+02  -1.0975610e+02  -1.0772358e+02  -1.0569106e+02  -1.0365854e+02  -1.0162602e+02  -9.9593496e+01  -9.7560976e+01  -9.5528455e+01  -9.3495935e+01  -9.0301974e+01  -8.7108014e+01  -8.3569251e+01  -8.0030488e+01  -7.6219512e+01  -7.2408537e+01  -6.8597561e+01  -6.4786585e+01  -6.0975610e+01  -5.7164634e+01  -5.3353659e+01  -4.9542683e+01  -4.5731707e+01  -4.1920732e+01  -3.8109756e+01  -3.4298780e+01  -3.0768501e+01  -2.7238221e+01  -2.2765522e+01  -1.8292823e+01  -1.3363084e+01  -8.4333444e+00  -3.4321418e+00   1.5690608e+00   6.5702634e+00   1.1571466e+01   1.8197649e+01   2.4823833e+01   2.7614510e+01   3.0405187e+01   3.6834935e+01   4.3264682e+01   4.3466861e+01   4.3669040e+01   5.0584390e+01   5.7499740e+01   6.6982841e+01   7.6465942e+01   8.6068464e+01   9.5670986e+01   1.0154690e+02   1.0742281e+02   1.1771160e+02   1.2800040e+02   1.3633126e+02   1.4466213e+02   1.5328140e+02   1.6190067e+02   1.7199005e+02   1.8207943e+02   1.8872663e+02   1.9537382e+02   2.0136898e+02   2.0736414e+02   2.1265470e+02   2.1794526e+02   2.2290019e+02   2.2785512e+02   2.3239278e+02   2.3693045e+02   2.4049245e+02   2.4405444e+02   2.4935923e+02   2.5466402e+02   2.5912016e+02   2.6357631e+02   2.6726953e+02   2.7096275e+02   2.7337944e+02   2.7579613e+02   2.7896632e+02   2.8213652e+02   2.8504456e+02   2.8795259e+02   2.9137730e+02   2.9480202e+02
-1.5784905e+01  -1.7766889e+01  -1.9357004e+01  -2.0947118e+01  -2.2537233e+01  -2.4127347e+01  -2.5717462e+01  -2.7307576e+01  -2.8897690e+01  -3.0487805e+01  -3.3906026e+01  -3.7324247e+01  -4.0742468e+01  -4.4160689e+01  -4.7479735e+01  -5.0798780e+01  -5.5876524e+01  -6.0954268e+01  -6.6032012e+01  -7.1109756e+01  -7.5247177e+01  -7.9384598e+01  -8.3145890e+01  -8.6907182e+01  -8.7947154e+01  -8.8987127e+01  -9.0027100e+01  -9.1067073e+01  -9.2107046e+01  -9.3147019e+01  -9.4186992e+01  -9.5226965e+01  -9.6266938e+01  -9.7306911e+01  -9.7529349e+01  -9.7751787e+01  -9.6747924e+01  -9.5744060e+01  -9.6240130e+01  -9.6736200e+01  -9.8290259e+01  -9.9844318e+01  -1.0138784e+02  -1.0293137e+02  -1.0447490e+02  -1.0601842e+02  -1.0761181e+02  -1.0920519e+02  -1.1129715e+02  -1.1338911e+02  -1.1556367e+02  -1.1773822e+02  -1.1996234e+02  -1.2218645e+02  -1.2441057e+02  -1.2663468e+02  -1.2885880e+02  -1.3108291e+02  -1.3319350e+02  -1.3530408e+02  -1.3593870e+02  -1.3657333e+02  -1.3720796e+02  -1.3784259e+02  -1.3847721e+02  -1.3911184e+02  -1.3974647e+02  -1.4038110e+02  -1.4158689e+02  -1.4279268e+02  -1.4417073e+02  -1.4554878e+02  -1.4702526e+02  -1.4850174e+02  -1.4997822e+02  -1.5145470e+02  -1.5034224e+02  -1.4922978e+02  -1.4720490e+02  -1.4518002e+02  -1.4372822e+02  -1.4227642e+02  -1.4082462e+02  -1.3937282e+02  -1.3792102e+02  -1.3646922e+02  -1.3501742e+02  -1.3356562e+02  -1.3211382e+02  -1.3066202e+02  -1.2921022e+02  -1.2775842e+02  -1.2587108e+02  -1.2398374e+02  -1.2195122e+02  -1.1991870e+02  -1.1788618e+02  -1.1585366e+02  -1.1382114e+02  -1.1178862e+02  -1.0975610e+02  -1.0772358e+02  -1.0569106e+02  -1.0365854e+02  -1.0162602e+02  -9.9593496e+01  -9.7560976e+01  -9.5528455e+01  -9.3495935e+01  -9.1463415e+01  -8.7108014e+01  -8.2752613e+01  -7.9486063e+01  -7.6219512e+01  -7.2408537e+01  -6.8597561e+01  -6.4786585e+01  -6.0975610e+01  -5.7164634e+01  -5.3353659e+01  -4.9542683e+01  -4.5731707e+01  -4.1920732e+01  -3.8109756e+01  -3.4298780e+01  -3.0487805e+01  -2.7238221e+01  -2.3988638e+01  -2.0005489e+01  -1.6022341e+01  -1.1125112e+01  -6.2278829e+00  -1.1877275e+00   3.8524279e+00   8.8925833e+00   1.3932739e+01   2.2222856e+01   3.0512973e+01   3.4072225e+01   3.7631477e+01   4.4129459e+01   5.0627441e+01   5.3815582e+01   5.7003723e+01   6.1829597e+01   6.6655471e+01   7.7257175e+01   8.7858879e+01   9.7557117e+01   1.0725536e+02   1.1414692e+02   1.2103848e+02   1.2696445e+02   1.3289041e+02   1.4205568e+02   1.5122095e+02   1.5846518e+02   1.6570941e+02   1.7479811e+02   1.8388681e+02   1.9000776e+02   1.9612871e+02   2.0162956e+02   2.0713042e+02   2.1307243e+02   2.1901443e+02   2.2436167e+02   2.2970891e+02   2.3474065e+02   2.3977238e+02   2.4354106e+02   2.4730974e+02   2.5247298e+02   2.5763621e+02   2.6241801e+02   2.6719981e+02   2.7094359e+02   2.7468736e+02   2.7748959e+02   2.8029182e+02   2.8566710e+02   2.9104237e+02   2.9447172e+02   2.9790108e+02   3.0063193e+02   3.0336278e+02
-1.8578981e+01  -2.0947118e+01  -2.2537233e+01  -2.4127347e+01  -2.5717462e+01  -2.7307576e+01  -2.9811744e+01  -3.2315911e+01  -3.4820079e+01  -3.7324247e+01  -4.0742468e+01  -4.4160689e+01  -4.7578910e+01  -5.0997131e+01  -5.4353367e+01  -5.7709604e+01  -6.1870808e+01  -6.6032012e+01  -7.1109756e+01  -7.6187500e+01  -8.0607018e+01  -8.5026536e+01  -8.8787827e+01  -9.2549119e+01  -9.3589092e+01  -9.4629065e+01  -9.5669038e+01  -9.6709011e+01  -9.7748984e+01  -9.8788957e+01  -9.9828930e+01  -1.0086890e+02  -1.0109134e+02  -1.0131378e+02  -1.0092307e+02  -1.0053235e+02  -9.9528490e+01  -9.8524627e+01  -9.8502422e+01  -9.8480217e+01  -1.0002356e+02  -1.0156690e+02  -1.0312095e+02  -1.0467501e+02  -1.0621854e+02  -1.0776207e+02  -1.0933052e+02  -1.1089898e+02  -1.1284136e+02  -1.1478375e+02  -1.1691701e+02  -1.1905027e+02  -1.2124134e+02  -1.2343242e+02  -1.2565653e+02  -1.2788065e+02  -1.3010476e+02  -1.3232888e+02  -1.3449623e+02  -1.3666358e+02  -1.3741174e+02  -1.3815990e+02  -1.3879453e+02  -1.3942916e+02  -1.4006378e+02  -1.4069841e+02  -1.4133304e+02  -1.4196767e+02  -1.4298307e+02  -1.4399848e+02  -1.4529040e+02  -1.4658232e+02  -1.4803419e+02  -1.4948606e+02  -1.5031531e+02  -1.5114455e+02  -1.4938486e+02  -1.4762516e+02  -1.4540925e+02  -1.4319335e+02  -1.4164604e+02  -1.4009872e+02  -1.3864692e+02  -1.3719512e+02  -1.3574332e+02  -1.3429152e+02  -1.3283972e+02  -1.3138792e+02  -1.2993612e+02  -1.2848432e+02  -1.2703252e+02  -1.2558072e+02  -1.2376597e+02  -1.2195122e+02  -1.1991870e+02  -1.1788618e+02  -1.1585366e+02  -1.1382114e+02  -1.1178862e+02  -1.0975610e+02  -1.0772358e+02  -1.0569106e+02  -1.0365854e+02  -1.0162602e+02  -9.9593496e+01  -9.7560976e+01  -9.5528455e+01  -9.3495935e+01  -9.0301974e+01  -8.7108014e+01  -8.2752613e+01  -7.8397213e+01  -7.5021777e+01  -7.1646341e+01  -6.8216463e+01  -6.4786585e+01  -6.0975610e+01  -5.7164634e+01  -5.3353659e+01  -4.9542683e+01  -4.5731707e+01  -4.1920732e+01  -3.8109756e+01  -3.4298780e+01  -3.0768501e+01  -2.7238221e+01  -2.3988638e+01  -2.0739054e+01  -1.7141483e+01  -1.3543911e+01  -8.7181455e+00  -3.8923798e+00   1.0048492e+00   5.9020781e+00   1.2491961e+01   1.9081844e+01   2.6466719e+01   3.3851594e+01   3.8195607e+01   4.2539619e+01   5.0519590e+01   5.8499561e+01   6.3305969e+01   6.8112377e+01   7.3321445e+01   7.8530513e+01   8.7208461e+01   9.5886409e+01   1.0534984e+02   1.1481326e+02   1.2070278e+02   1.2659229e+02   1.3231002e+02   1.3802775e+02   1.4587419e+02   1.5372064e+02   1.6117252e+02   1.6862440e+02   1.7719486e+02   1.8576533e+02   1.9212368e+02   1.9848204e+02   2.0404644e+02   2.0961085e+02   2.1541563e+02   2.2122041e+02   2.2649178e+02   2.3176315e+02   2.3653310e+02   2.4130304e+02   2.4555430e+02   2.4980556e+02   2.5485908e+02   2.5991261e+02   2.6561831e+02   2.7132400e+02   2.7574814e+02   2.8017227e+02   2.8385632e+02   2.8754037e+02   2.9219202e+02   2.9684367e+02   3.0009267e+02   3.0334166e+02   3.0607291e+02   3.0880417e+02
-2.1373057e+01  -2.4127347e+01  -2.5717462e+01  -2.7307576e+01  -2.8897690e+01  -3.0487805e+01  -3.3906026e+01  -3.7324247e+01  -4.0742468e+01  -4.4160689e+01  -4.7578910e+01  -5.0997131e+01  -5.4415352e+01  -5.7833572e+01  -6.1227000e+01  -6.4620427e+01  -6.7865091e+01  -7.1109756e+01  -7.6187500e+01  -8.1265244e+01  -8.5966859e+01  -9.0668473e+01  -9.4429765e+01  -9.8191057e+01  -9.9231030e+01  -1.0027100e+02  -1.0131098e+02  -1.0235095e+02  -1.0339092e+02  -1.0443089e+02  -1.0547087e+02  -1.0651084e+02  -1.0591574e+02  -1.0532065e+02  -1.0431678e+02  -1.0331292e+02  -1.0230906e+02  -1.0130519e+02  -1.0076471e+02  -1.0022423e+02  -1.0175685e+02  -1.0328947e+02  -1.0485406e+02  -1.0641866e+02  -1.0796218e+02  -1.0950571e+02  -1.1104923e+02  -1.1259276e+02  -1.1438557e+02  -1.1617839e+02  -1.1827035e+02  -1.2036231e+02  -1.2252035e+02  -1.2467838e+02  -1.2690250e+02  -1.2912661e+02  -1.3135073e+02  -1.3357484e+02  -1.3579896e+02  -1.3802308e+02  -1.3888477e+02  -1.3974647e+02  -1.4038110e+02  -1.4101573e+02  -1.4165035e+02  -1.4228498e+02  -1.4291961e+02  -1.4355424e+02  -1.4437925e+02  -1.4520427e+02  -1.4641006e+02  -1.4761585e+02  -1.4904312e+02  -1.5047038e+02  -1.5065239e+02  -1.5083440e+02  -1.4842747e+02  -1.4602054e+02  -1.4361361e+02  -1.4120668e+02  -1.3956385e+02  -1.3792102e+02  -1.3646922e+02  -1.3501742e+02  -1.3356562e+02  -1.3211382e+02  -1.3066202e+02  -1.2921022e+02  -1.2775842e+02  -1.2630662e+02  -1.2485482e+02  -1.2340302e+02  -1.2166086e+02  -1.1991870e+02  -1.1788618e+02  -1.1585366e+02  -1.1382114e+02  -1.1178862e+02  -1.0975610e+02  -1.0772358e+02  -1.0569106e+02  -1.0365854e+02  -1.0162602e+02  -9.9593496e+01  -9.7560976e+01  -9.5528455e+01  -9.3495935e+01  -9.1463415e+01  -8.7108014e+01  -8.2752613e+01  -7.8397213e+01  -7.4041812e+01  -7.0557491e+01  -6.7073171e+01  -6.4024390e+01  -6.0975610e+01  -5.7164634e+01  -5.3353659e+01  -4.9542683e+01  -4.5731707e+01  -4.1920732e+01  -3.8109756e+01  -3.4298780e+01  -3.0487805e+01  -2.7238221e+01  -2.3988638e+01  -2.0739054e+01  -1.7489470e+01  -1.4277476e+01  -1.1065482e+01  -6.3111792e+00  -1.5568767e+00   3.1974258e+00   7.9517283e+00   1.6091339e+01   2.4230949e+01   3.0710582e+01   3.7190216e+01   4.2318988e+01   4.7447761e+01   5.6909721e+01   6.6371681e+01   7.2796356e+01   7.9221031e+01   8.4813293e+01   9.0405555e+01   9.7159748e+01   1.0391394e+02   1.1314255e+02   1.2237117e+02   1.2725864e+02   1.3214610e+02   1.3765559e+02   1.4316508e+02   1.4969271e+02   1.5622034e+02   1.6387986e+02   1.7153938e+02   1.7959161e+02   1.8764384e+02   1.9423961e+02   2.0083537e+02   2.0646332e+02   2.1209128e+02   2.1775883e+02   2.2342639e+02   2.2862189e+02   2.3381740e+02   2.3832555e+02   2.4283369e+02   2.4756753e+02   2.5230138e+02   2.5724519e+02   2.6218901e+02   2.6881860e+02   2.7544820e+02   2.8055269e+02   2.8565718e+02   2.9022305e+02   2.9478892e+02   2.9871695e+02   3.0264497e+02   3.0571361e+02   3.0878224e+02   3.1151390e+02   3.1424556e+02
-2.4630959e+01  -2.7307576e+01  -2.9811744e+01  -3.2315911e+01  -3.4820079e+01  -3.7324247e+01  -4.0742468e+01  -4.4160689e+01  -4.7578910e+01  -5.0997131e+01  -5.4415352e+01  -5.7833572e+01  -6.1251793e+01  -6.4670014e+01  -6.8075838e+01  -7.1481662e+01  -7.4751121e+01  -7.8020579e+01  -8.2181784e+01  -8.6342988e+01  -9.1232667e+01  -9.6122346e+01  -9.9977671e+01  -1.0383299e+02  -1.0487297e+02  -1.0591294e+02  -1.0695291e+02  -1.0799289e+02  -1.0882848e+02  -1.0966406e+02  -1.0968212e+02  -1.0970017e+02  -1.0890069e+02  -1.0810121e+02  -1.0709735e+02  -1.0609349e+02  -1.0508962e+02  -1.0408576e+02  -1.0331359e+02  -1.0254142e+02  -1.0373460e+02  -1.0492779e+02  -1.0652925e+02  -1.0813070e+02  -1.0969003e+02  -1.1124935e+02  -1.1279288e+02  -1.1433640e+02  -1.1600457e+02  -1.1767274e+02  -1.1971485e+02  -1.2175695e+02  -1.2388195e+02  -1.2600695e+02  -1.2818976e+02  -1.3037258e+02  -1.3259669e+02  -1.3482081e+02  -1.3704492e+02  -1.3926904e+02  -1.4030104e+02  -1.4133304e+02  -1.4196767e+02  -1.4260229e+02  -1.4323692e+02  -1.4387155e+02  -1.4450618e+02  -1.4514081e+02  -1.4587063e+02  -1.4660045e+02  -1.4771105e+02  -1.4882165e+02  -1.5013818e+02  -1.5145470e+02  -1.5034224e+02  -1.4922978e+02  -1.4682285e+02  -1.4441592e+02  -1.4200899e+02  -1.3960205e+02  -1.3767269e+02  -1.3574332e+02  -1.3429152e+02  -1.3283972e+02  -1.3138792e+02  -1.2993612e+02  -1.2848432e+02  -1.2703252e+02  -1.2558072e+02  -1.2412892e+02  -1.2267712e+02  -1.2122532e+02  -1.1955575e+02  -1.1788618e+02  -1.1585366e+02  -1.1382114e+02  -1.1178862e+02  -1.0975610e+02  -1.0772358e+02  -1.0569106e+02  -1.0365854e+02  -1.0162602e+02  -9.9593496e+01  -9.7560976e+01  -9.5528455e+01  -9.3495935e+01  -9.0301974e+01  -8.7108014e+01  -8.2752613e+01  -7.8397213e+01  -7.4041812e+01  -6.9686411e+01  -6.6093206e+01  -6.2500000e+01  -5.9451220e+01  -5.6402439e+01  -5.2972561e+01  -4.9542683e+01  -4.5731707e+01  -4.1920732e+01  -3.8109756e+01  -3.4298780e+01  -3.0768501e+01  -2.7238221e+01  -2.3988638e+01  -2.0739054e+01  -1.7489470e+01  -1.4239887e+01  -1.1027892e+01  -7.8158981e+00  -3.4471726e+00   9.2155287e-01   5.9594048e+00   1.0997257e+01   1.9913348e+01   2.8829439e+01   3.5065707e+01   4.1301975e+01   4.7468030e+01   5.3634086e+01   6.2305341e+01   7.0976596e+01   7.7793867e+01   8.4611137e+01   9.0158224e+01   9.5705310e+01   1.0139900e+02   1.0709270e+02   1.1687334e+02   1.2665398e+02   1.3139789e+02   1.3614179e+02   1.4129013e+02   1.4643846e+02   1.5374511e+02   1.6105176e+02   1.6825859e+02   1.7546542e+02   1.8366266e+02   1.9185989e+02   1.9850391e+02   2.0514793e+02   2.0984982e+02   2.1455171e+02   2.1987256e+02   2.2519341e+02   2.3089506e+02   2.3659671e+02   2.4171242e+02   2.4682812e+02   2.5246007e+02   2.5809201e+02   2.6350252e+02   2.6891304e+02   2.7472207e+02   2.8053110e+02   2.8561829e+02   2.9070547e+02   2.9576061e+02   3.0081575e+02   3.0535271e+02   3.0988968e+02   3.1308535e+02   3.1628102e+02   3.1884264e+02   3.2140425e+02
-2.7888861e+01  -3.0487805e+01  -3.3906026e+01  -3.7324247e+01  -4.0742468e+01  -4.4160689e+01  -4.7578910e+01  -5.0997131e+01  -5.4415352e+01  -5.7833572e+01  -6.1251793e+01  -6.4670014e+01  -6.8088235e+01  -7.1506456e+01  -7.4924677e+01  -7.8342898e+01  -8.1637150e+01  -8.4931402e+01  -8.8176067e+01  -9.1420732e+01  -9.6498476e+01  -1.0157622e+02  -1.0552558e+02  -1.0947493e+02  -1.1051491e+02  -1.1155488e+02  -1.1259485e+02  -1.1363482e+02  -1.1426603e+02  -1.1489724e+02  -1.1389337e+02  -1.1288951e+02  -1.1188564e+02  -1.1088178e+02  -1.0987792e+02  -1.0887405e+02  -1.0787019e+02  -1.0686633e+02  -1.0586246e+02  -1.0485860e+02  -1.0571236e+02  -1.0656611e+02  -1.0820443e+02  -1.0984275e+02  -1.1141787e+02  -1.1299299e+02  -1.1453652e+02  -1.1608005e+02  -1.1762357e+02  -1.1916710e+02  -1.2115934e+02  -1.2315159e+02  -1.2524355e+02  -1.2733551e+02  -1.2947703e+02  -1.3161854e+02  -1.3384266e+02  -1.3606677e+02  -1.3829089e+02  -1.4051500e+02  -1.4171731e+02  -1.4291961e+02  -1.4355424e+02  -1.4418886e+02  -1.4482349e+02  -1.4545812e+02  -1.4609275e+02  -1.4672737e+02  -1.4736200e+02  -1.4799663e+02  -1.4901203e+02  -1.5002744e+02  -1.5123323e+02  -1.5243902e+02  -1.5003209e+02  -1.4762516e+02  -1.4521823e+02  -1.4281130e+02  -1.4040436e+02  -1.3799743e+02  -1.3578153e+02  -1.3356562e+02  -1.3211382e+02  -1.3066202e+02  -1.2921022e+02  -1.2775842e+02  -1.2630662e+02  -1.2485482e+02  -1.2340302e+02  -1.2195122e+02  -1.2049942e+02  -1.1904762e+02  -1.1745064e+02  -1.1585366e+02  -1.1382114e+02  -1.1178862e+02  -1.0975610e+02  -1.0772358e+02  -1.0569106e+02  -1.0365854e+02  -1.0162602e+02  -9.9593496e+01  -9.7560976e+01  -9.5528455e+01  -9.3495935e+01  -9.1463415e+01  -8.7108014e+01  -8.2752613e+01  -7.8397213e+01  -7.4041812e+01  -6.9686411e+01  -6.5331010e+01  -6.1628920e+01  -5.7926829e+01  -5.4878049e+01  -5.1829268e+01  -4.8780488e+01  -4.5731707e+01  -4.1920732e+01  -3.8109756e+01  -3.4298780e+01  -3.0487805e+01  -2.7238221e+01  -2.3988638e+01  -2.0739054e+01  -1.7489470e+01  -1.4239887e+01  -1.0990303e+01  -7.7783088e+00  -4.5663144e+00  -5.8316601e-01   3.3999824e+00   8.7213838e+00   1.4042785e+01   2.3735357e+01   3.3427928e+01   3.9420831e+01   4.5413734e+01   5.2617073e+01   5.9820411e+01   6.7700962e+01   7.5581512e+01   8.2791378e+01   9.0001243e+01   9.5503154e+01   1.0100507e+02   1.0563826e+02   1.1027145e+02   1.2060413e+02   1.3093680e+02   1.3553714e+02   1.4013748e+02   1.4492466e+02   1.4971184e+02   1.5779752e+02   1.6588319e+02   1.7263733e+02   1.7939146e+02   1.8773370e+02   1.9607594e+02   2.0276822e+02   2.0946049e+02   2.1323632e+02   2.1701215e+02   2.2198629e+02   2.2696043e+02   2.3316823e+02   2.3937602e+02   2.4509929e+02   2.5082256e+02   2.5735260e+02   2.6388264e+02   2.6975986e+02   2.7563707e+02   2.8062553e+02   2.8561400e+02   2.9068388e+02   2.9575377e+02   3.0129817e+02   3.0684257e+02   3.1198848e+02   3.1713438e+02   3.2045709e+02   3.2377980e+02   3.2617137e+02   3.2856294e+02
-3.0930493e+01  -3.3101045e+01  -3.6911134e+01  -4.0721223e+01  -4.5515230e+01  -5.0309237e+01  -5.4071405e+01  -5.7833572e+01  -6.1251793e+01  -6.4670014e+01  -6.8088235e+01  -7.1506456e+01  -7.4924677e+01  -7.8342898e+01  -8.1761119e+01  -8.5179340e+01  -8.8510783e+01  -9.1842226e+01  -9.5086890e+01  -9.8331555e+01  -1.0249276e+02  -1.0665396e+02  -1.1088542e+02  -1.1511687e+02  -1.1615684e+02  -1.1719682e+02  -1.1762364e+02  -1.1805046e+02  -1.1786413e+02  -1.1767780e+02  -1.1667394e+02  -1.1567007e+02  -1.1466621e+02  -1.1366235e+02  -1.1265848e+02  -1.1165462e+02  -1.1065076e+02  -1.0964689e+02  -1.0864303e+02  -1.0763917e+02  -1.0802750e+02  -1.0841582e+02  -1.0994845e+02  -1.1148107e+02  -1.1308779e+02  -1.1469451e+02  -1.1625910e+02  -1.1782369e+02  -1.1936722e+02  -1.2091074e+02  -1.2272849e+02  -1.2454623e+02  -1.2663819e+02  -1.2873015e+02  -1.3084689e+02  -1.3296363e+02  -1.3513818e+02  -1.3731274e+02  -1.3953685e+02  -1.4176097e+02  -1.4313357e+02  -1.4450618e+02  -1.4514081e+02  -1.4577543e+02  -1.4641006e+02  -1.4704469e+02  -1.4767932e+02  -1.4831394e+02  -1.4894857e+02  -1.4958320e+02  -1.5040822e+02  -1.5123323e+02  -1.5081987e+02  -1.5040650e+02  -1.4818678e+02  -1.4596705e+02  -1.4358686e+02  -1.4120668e+02  -1.3879974e+02  -1.3639281e+02  -1.3408139e+02  -1.3176997e+02  -1.3012715e+02  -1.2848432e+02  -1.2703252e+02  -1.2558072e+02  -1.2412892e+02  -1.2267712e+02  -1.2122532e+02  -1.1977352e+02  -1.1832172e+02  -1.1686992e+02  -1.1534553e+02  -1.1382114e+02  -1.1178862e+02  -1.0975610e+02  -1.0772358e+02  -1.0569106e+02  -1.0365854e+02  -1.0162602e+02  -9.9593496e+01  -9.7560976e+01  -9.5528455e+01  -9.3495935e+01  -9.0574187e+01  -8.7652439e+01  -8.3145809e+01  -7.8639179e+01  -7.4162795e+01  -6.9686411e+01  -6.5331010e+01  -6.0975610e+01  -5.7164634e+01  -5.3353659e+01  -5.0304878e+01  -4.7256098e+01  -4.4207317e+01  -4.1158537e+01  -3.7728659e+01  -3.4298780e+01  -3.0768501e+01  -2.7238221e+01  -2.3988638e+01  -2.0739054e+01  -1.7489470e+01  -1.4239887e+01  -1.0990303e+01  -7.7407195e+00  -4.5287252e+00  -1.3167308e+00   2.2808406e+00   5.8784120e+00   1.2195119e+01   1.8511827e+01   2.7368984e+01   3.6226140e+01   4.2000361e+01   4.7774581e+01   5.8450838e+01   6.9127094e+01   7.5753000e+01   8.2378906e+01   8.8678094e+01   9.4977283e+01   1.0004056e+02   1.0510384e+02   1.1186230e+02   1.1862077e+02   1.2676961e+02   1.3491844e+02   1.3966912e+02   1.4441980e+02   1.4965978e+02   1.5489976e+02   1.6121709e+02   1.6753442e+02   1.7505132e+02   1.8256821e+02   1.9137762e+02   2.0018703e+02   2.0582516e+02   2.1146328e+02   2.1584587e+02   2.2022845e+02   2.2571639e+02   2.3120433e+02   2.3810488e+02   2.4500543e+02   2.5075436e+02   2.5650330e+02   2.6302736e+02   2.6955142e+02   2.7565550e+02   2.8175958e+02   2.8683704e+02   2.9191449e+02   2.9712249e+02   3.0233049e+02   3.0789886e+02   3.1346722e+02   3.1808996e+02   3.2271269e+02   3.2634911e+02   3.2998553e+02   3.3237098e+02   3.3475642e+02
-3.3972125e+01  -3.5714286e+01  -3.9916242e+01  -4.4118199e+01  -5.0287992e+01  -5.6457786e+01  -6.0563900e+01  -6.4670014e+01  -6.8088235e+01  -7.1506456e+01  -7.4924677e+01  -7.8342898e+01  -8.1761119e+01  -8.5179340e+01  -8.8597561e+01  -9.2015782e+01  -9.5384415e+01  -9.8753049e+01  -1.0199771e+02  -1.0524238e+02  -1.0848704e+02  -1.1173171e+02  -1.1624526e+02  -1.2075881e+02  -1.2179878e+02  -1.2283875e+02  -1.2265242e+02  -1.2246610e+02  -1.2146223e+02  -1.2045837e+02  -1.1945450e+02  -1.1845064e+02  -1.1744678e+02  -1.1644291e+02  -1.1543905e+02  -1.1443519e+02  -1.1343132e+02  -1.1242746e+02  -1.1142360e+02  -1.1041973e+02  -1.1034264e+02  -1.1026554e+02  -1.1169246e+02  -1.1311938e+02  -1.1475770e+02  -1.1639602e+02  -1.1798168e+02  -1.1956733e+02  -1.2111086e+02  -1.2265439e+02  -1.2429763e+02  -1.2594087e+02  -1.2803283e+02  -1.3012479e+02  -1.3221675e+02  -1.3430871e+02  -1.3643371e+02  -1.3855870e+02  -1.4078282e+02  -1.4300693e+02  -1.4454984e+02  -1.4609275e+02  -1.4672737e+02  -1.4736200e+02  -1.4799663e+02  -1.4863126e+02  -1.4926589e+02  -1.4990051e+02  -1.5053514e+02  -1.5116977e+02  -1.5180440e+02  -1.5243902e+02  -1.5040650e+02  -1.4837398e+02  -1.4634146e+02  -1.4430894e+02  -1.4195550e+02  -1.3960205e+02  -1.3719512e+02  -1.3478819e+02  -1.3238126e+02  -1.2997433e+02  -1.2814047e+02  -1.2630662e+02  -1.2485482e+02  -1.2340302e+02  -1.2195122e+02  -1.2049942e+02  -1.1904762e+02  -1.1759582e+02  -1.1614402e+02  -1.1469222e+02  -1.1324042e+02  -1.1178862e+02  -1.0975610e+02  -1.0772358e+02  -1.0569106e+02  -1.0365854e+02  -1.0162602e+02  -9.9593496e+01  -9.7560976e+01  -9.5528455e+01  -9.3495935e+01  -9.1463415e+01  -8.7652439e+01  -8.3841463e+01  -7.9183604e+01  -7.4525745e+01  -6.9928378e+01  -6.5331010e+01  -6.0975610e+01  -5.6620209e+01  -5.2700348e+01  -4.8780488e+01  -4.5731707e+01  -4.2682927e+01  -3.9634146e+01  -3.6585366e+01  -3.3536585e+01  -3.0487805e+01  -2.7238221e+01  -2.3988638e+01  -2.0739054e+01  -1.7489470e+01  -1.4239887e+01  -1.0990303e+01  -7.7407195e+00  -4.4911359e+00  -1.2791416e+00   1.9328528e+00   5.1448472e+00   8.3568415e+00   1.5668855e+01   2.2980869e+01   3.1002611e+01   3.9024353e+01   4.4579891e+01   5.0135429e+01   6.4284603e+01   7.8433776e+01   8.3805038e+01   8.9176300e+01   9.4564811e+01   9.9953323e+01   1.0457796e+02   1.0920261e+02   1.1808635e+02   1.2697009e+02   1.3293509e+02   1.3890008e+02   1.4380110e+02   1.4870212e+02   1.5439490e+02   1.6008768e+02   1.6463666e+02   1.6918565e+02   1.7746531e+02   1.8574496e+02   1.9502154e+02   2.0429813e+02   2.0888209e+02   2.1346606e+02   2.1845541e+02   2.2344476e+02   2.2944649e+02   2.3544823e+02   2.4304153e+02   2.5063484e+02   2.5640944e+02   2.6218404e+02   2.6870212e+02   2.7522020e+02   2.8155115e+02   2.8788209e+02   2.9304854e+02   2.9821498e+02   3.0356110e+02   3.0890721e+02   3.1449954e+02   3.2009187e+02   3.2419144e+02   3.2829100e+02   3.3224113e+02   3.3619127e+02   3.3857059e+02   3.4094990e+02
-3.6585366e+01  -3.8327526e+01  -4.1545564e+01  -4.4763602e+01  -5.0933396e+01  -5.7103189e+01  -6.2241143e+01  -6.7379097e+01  -7.2173105e+01  -7.6967112e+01  -8.1073226e+01  -8.5179340e+01  -8.8597561e+01  -9.2015782e+01  -9.5434003e+01  -9.8852224e+01  -1.0224565e+02  -1.0563908e+02  -1.0889614e+02  -1.1215320e+02  -1.1539787e+02  -1.1864253e+02  -1.2252164e+02  -1.2640075e+02  -1.2641880e+02  -1.2643685e+02  -1.2584176e+02  -1.2524666e+02  -1.2424280e+02  -1.2323894e+02  -1.2223507e+02  -1.2123121e+02  -1.2022734e+02  -1.1922348e+02  -1.1821962e+02  -1.1721575e+02  -1.1621189e+02  -1.1520803e+02  -1.1420416e+02  -1.1320030e+02  -1.1273705e+02  -1.1227380e+02  -1.1351575e+02  -1.1475770e+02  -1.1639602e+02  -1.1803434e+02  -1.1964633e+02  -1.2125831e+02  -1.2282817e+02  -1.2439803e+02  -1.2599141e+02  -1.2758480e+02  -1.2955211e+02  -1.3151943e+02  -1.3361139e+02  -1.3570335e+02  -1.3781183e+02  -1.3992030e+02  -1.4208660e+02  -1.4425290e+02  -1.4596611e+02  -1.4767932e+02  -1.4831394e+02  -1.4894857e+02  -1.4958320e+02  -1.5021783e+02  -1.5042636e+02  -1.5063490e+02  -1.5041734e+02  -1.5019978e+02  -1.4998222e+02  -1.4976466e+02  -1.4805306e+02  -1.4634146e+02  -1.4430894e+02  -1.4227642e+02  -1.4008344e+02  -1.3789046e+02  -1.3553701e+02  -1.3318357e+02  -1.3077664e+02  -1.2836970e+02  -1.2624931e+02  -1.2412892e+02  -1.2267712e+02  -1.2122532e+02  -1.1977352e+02  -1.1832172e+02  -1.1686992e+02  -1.1541812e+02  -1.1396632e+02  -1.1251452e+02  -1.1106272e+02  -1.0961092e+02  -1.0765099e+02  -1.0569106e+02  -1.0365854e+02  -1.0162602e+02  -9.9593496e+01  -9.7560976e+01  -9.5528455e+01  -9.3495935e+01  -9.0574187e+01  -8.7652439e+01  -8.3841463e+01  -8.0030488e+01  -7.5584350e+01  -7.1138211e+01  -6.6298877e+01  -6.1459543e+01  -5.6862176e+01  -5.2264808e+01  -4.8236063e+01  -4.4207317e+01  -4.1158537e+01  -3.8109756e+01  -3.4597407e+01  -3.1085058e+01  -2.7828353e+01  -2.4571649e+01  -2.1995617e+01  -1.9419584e+01  -1.6296055e+01  -1.3172526e+01  -1.0189782e+01  -7.2070390e+00  -4.2242956e+00  -1.2415523e+00   9.6938292e-01   3.1803181e+00   8.2110866e+00   1.3241855e+01   2.0022189e+01   2.6802522e+01   3.4178456e+01   4.1554389e+01   4.7371625e+01   5.3188861e+01   6.6891107e+01   8.0593353e+01   8.6003471e+01   9.1413589e+01   9.8639335e+01   1.0586508e+02   1.1102734e+02   1.1618960e+02   1.2326820e+02   1.3034681e+02   1.3730746e+02   1.4426812e+02   1.4857059e+02   1.5287305e+02   1.5819307e+02   1.6351308e+02   1.6872240e+02   1.7393172e+02   1.8207318e+02   1.9021464e+02   1.9899082e+02   2.0776699e+02   2.1294160e+02   2.1811620e+02   2.2396998e+02   2.2982375e+02   2.3595895e+02   2.4209415e+02   2.4887070e+02   2.5564725e+02   2.6187611e+02   2.6810498e+02   2.7496705e+02   2.8182912e+02   2.8843452e+02   2.9503992e+02   3.0036470e+02   3.0568948e+02   3.1085628e+02   3.1602307e+02   3.2116678e+02   3.2631049e+02   3.3028062e+02   3.3425075e+02   3.3791377e+02   3.4157680e+02   3.4348524e+02   3.4539368e+02
-3.9198606e+01  -4.0940767e+01  -4.3174886e+01  -4.5409006e+01  -5.1578799e+01  -5.7748593e+01  -6.3918386e+01  -7.0088180e+01  -7.6257974e+01  -8.2427767e+01  -8.7221775e+01  -9.2015782e+01  -9.5434003e+01  -9.8852224e+01  -1.0227044e+02  -1.0568867e+02  -1.0910689e+02  -1.1252511e+02  -1.1579457e+02  -1.1906402e+02  -1.2230869e+02  -1.2555335e+02  -1.2879802e+02  -1.3204268e+02  -1.3103882e+02  -1.3003496e+02  -1.2903109e+02  -1.2802723e+02  -1.2702337e+02  -1.2601950e+02  -1.2501564e+02  -1.2401177e+02  -1.2300791e+02  -1.2200405e+02  -1.2100018e+02  -1.1999632e+02  -1.1899246e+02  -1.1798859e+02  -1.1698473e+02  -1.1598087e+02  -1.1513146e+02  -1.1428206e+02  -1.1533904e+02  -1.1639602e+02  -1.1803434e+02  -1.1967266e+02  -1.2131098e+02  -1.2294929e+02  -1.2454548e+02  -1.2614167e+02  -1.2768520e+02  -1.2922872e+02  -1.3107140e+02  -1.3291407e+02  -1.3500603e+02  -1.3709799e+02  -1.3918995e+02  -1.4128191e+02  -1.4339039e+02  -1.4549886e+02  -1.4738237e+02  -1.4926589e+02  -1.4990051e+02  -1.5053514e+02  -1.5116977e+02  -1.5180440e+02  -1.5158684e+02  -1.5136928e+02  -1.5029953e+02  -1.4922978e+02  -1.4816003e+02  -1.4709029e+02  -1.4569961e+02  -1.4430894e+02  -1.4227642e+02  -1.4024390e+02  -1.3821138e+02  -1.3617886e+02  -1.3387890e+02  -1.3157895e+02  -1.2917202e+02  -1.2676508e+02  -1.2435815e+02  -1.2195122e+02  -1.2049942e+02  -1.1904762e+02  -1.1759582e+02  -1.1614402e+02  -1.1469222e+02  -1.1324042e+02  -1.1178862e+02  -1.1033682e+02  -1.0888502e+02  -1.0743322e+02  -1.0554588e+02  -1.0365854e+02  -1.0162602e+02  -9.9593496e+01  -9.7560976e+01  -9.5528455e+01  -9.3495935e+01  -9.1463415e+01  -8.7652439e+01  -8.3841463e+01  -8.0030488e+01  -7.6219512e+01  -7.1985095e+01  -6.7750678e+01  -6.2669377e+01  -5.7588076e+01  -5.2748742e+01  -4.7909408e+01  -4.3771777e+01  -3.9634146e+01  -3.6585366e+01  -3.3536585e+01  -2.9560668e+01  -2.5584750e+01  -2.2120122e+01  -1.8655493e+01  -1.6753012e+01  -1.4850531e+01  -1.1853056e+01  -8.8555810e+00  -6.1396779e+00  -3.4237748e+00  -7.0787175e-01   2.0080313e+00   3.2179074e+00   4.4277835e+00   1.1277326e+01   1.8126869e+01   2.4375522e+01   3.0624176e+01   3.7354301e+01   4.4084426e+01   5.0163360e+01   5.6242294e+01   6.9497611e+01   8.2752929e+01   8.8201904e+01   9.3650878e+01   1.0271386e+02   1.1177684e+02   1.1747671e+02   1.2317659e+02   1.2845006e+02   1.3372353e+02   1.4167984e+02   1.4963615e+02   1.5334007e+02   1.5704399e+02   1.6199123e+02   1.6693848e+02   1.7280813e+02   1.7867778e+02   1.8668105e+02   1.9468433e+02   2.0296009e+02   2.1123585e+02   2.1700110e+02   2.2276634e+02   2.2948454e+02   2.3620274e+02   2.4247140e+02   2.4874007e+02   2.5469986e+02   2.6065965e+02   2.6734279e+02   2.7402592e+02   2.8123198e+02   2.8843803e+02   2.9531789e+02   3.0219774e+02   3.0768086e+02   3.1316399e+02   3.1815146e+02   3.2313893e+02   3.2783401e+02   3.3252910e+02   3.3636980e+02   3.4021049e+02   3.4358641e+02   3.4696233e+02   3.4839989e+02   3.4983745e+02
-4.1811847e+01  -4.3554007e+01  -4.5542147e+01  -4.7530287e+01  -5.2962142e+01  -5.8393996e+01  -6.4563790e+01  -7.0733583e+01  -7.6903377e+01  -8.3073171e+01  -8.8555071e+01  -9.4036972e+01  -9.8830979e+01  -1.0362499e+02  -1.0807505e+02  -1.1252511e+02  -1.1594333e+02  -1.1936155e+02  -1.2266820e+02  -1.2597485e+02  -1.2921951e+02  -1.3246418e+02  -1.3282966e+02  -1.3319515e+02  -1.3260728e+02  -1.3201941e+02  -1.3141360e+02  -1.3080780e+02  -1.2980393e+02  -1.2880007e+02  -1.2779620e+02  -1.2679234e+02  -1.2578848e+02  -1.2478461e+02  -1.2378075e+02  -1.2277689e+02  -1.2177302e+02  -1.2076916e+02  -1.1976530e+02  -1.1876143e+02  -1.1783480e+02  -1.1690817e+02  -1.1762980e+02  -1.1835143e+02  -1.1983120e+02  -1.2131098e+02  -1.2294929e+02  -1.2458761e+02  -1.2620487e+02  -1.2782212e+02  -1.2939724e+02  -1.3097237e+02  -1.3266547e+02  -1.3435856e+02  -1.3642560e+02  -1.3849263e+02  -1.4058459e+02  -1.4267655e+02  -1.4477677e+02  -1.4687698e+02  -1.4886472e+02  -1.5085246e+02  -1.5063490e+02  -1.5041734e+02  -1.5019978e+02  -1.4998222e+02  -1.4933856e+02  -1.4869491e+02  -1.4762516e+02  -1.4655541e+02  -1.4548567e+02  -1.4441592e+02  -1.4318571e+02  -1.4195550e+02  -1.4008344e+02  -1.3821138e+02  -1.3617886e+02  -1.3414634e+02  -1.3198010e+02  -1.2981386e+02  -1.2748716e+02  -1.2516046e+02  -1.2275353e+02  -1.2034660e+02  -1.1860826e+02  -1.1686992e+02  -1.1541812e+02  -1.1396632e+02  -1.1251452e+02  -1.1106272e+02  -1.0961092e+02  -1.0815912e+02  -1.0670732e+02  -1.0525552e+02  -1.0344077e+02  -1.0162602e+02  -9.9593496e+01  -9.7560976e+01  -9.5528455e+01  -9.3495935e+01  -9.0574187e+01  -8.7652439e+01  -8.3841463e+01  -8.0030488e+01  -7.6219512e+01  -7.2408537e+01  -6.8385840e+01  -6.4363144e+01  -5.9281843e+01  -5.4200542e+01  -4.9240225e+01  -4.4279907e+01  -3.9670441e+01  -3.5060976e+01  -3.1085058e+01  -2.7109140e+01  -2.2669654e+01  -1.8230168e+01  -1.5484752e+01  -1.2739337e+01  -1.1525139e+01  -1.0310941e+01  -7.1726797e+00  -4.0344189e+00  -1.0369440e+00   1.9605309e+00   4.2439337e+00   6.5273366e+00   7.7442417e+00   8.9611468e+00   1.6310748e+01   2.3660348e+01   2.9342450e+01   3.5024551e+01   4.1641075e+01   4.8257598e+01   5.4815998e+01   6.1374397e+01   7.1325168e+01   8.1275939e+01   8.9420429e+01   9.7564918e+01   1.0682317e+02   1.1608141e+02   1.2251748e+02   1.2895355e+02   1.3473270e+02   1.4051184e+02   1.4696798e+02   1.5342411e+02   1.5727031e+02   1.6111650e+02   1.6625267e+02   1.7138884e+02   1.7752097e+02   1.8365309e+02   1.9217561e+02   2.0069812e+02   2.0947168e+02   2.1824524e+02   2.2366205e+02   2.2907886e+02   2.3538665e+02   2.4169444e+02   2.4753387e+02   2.5337331e+02   2.5948354e+02   2.6559376e+02   2.7207066e+02   2.7854756e+02   2.8613802e+02   2.9372847e+02   3.0175349e+02   3.0977852e+02   3.1521863e+02   3.2065874e+02   3.2509505e+02   3.2953137e+02   3.3352678e+02   3.3752219e+02   3.4097000e+02   3.4441782e+02   3.4706154e+02   3.4970526e+02   3.5140440e+02   3.5310353e+02
-4.4425087e+01  -4.6167247e+01  -4.7909408e+01  -4.9651568e+01  -5.4345484e+01  -5.9039400e+01  -6.5209193e+01  -7.1378987e+01  -7.7548780e+01  -8.3718574e+01  -8.9888368e+01  -9.6058161e+01  -1.0222795e+02  -1.0839775e+02  -1.1387965e+02  -1.1936155e+02  -1.2277977e+02  -1.2619799e+02  -1.2954183e+02  -1.3288567e+02  -1.3613034e+02  -1.3937500e+02  -1.3686131e+02  -1.3434762e+02  -1.3417574e+02  -1.3400387e+02  -1.3379612e+02  -1.3358836e+02  -1.3258450e+02  -1.3158063e+02  -1.3057677e+02  -1.2957291e+02  -1.2856904e+02  -1.2756518e+02  -1.2656132e+02  -1.2555745e+02  -1.2455359e+02  -1.2354973e+02  -1.2254586e+02  -1.2154200e+02  -1.2053814e+02  -1.1953427e+02  -1.1992056e+02  -1.2030685e+02  -1.2162807e+02  -1.2294929e+02  -1.2458761e+02  -1.2622593e+02  -1.2786425e+02  -1.2950257e+02  -1.3110929e+02  -1.3271601e+02  -1.3425954e+02  -1.3580306e+02  -1.3784516e+02  -1.3988727e+02  -1.4197923e+02  -1.4407119e+02  -1.4616315e+02  -1.4825510e+02  -1.5034706e+02  -1.5243902e+02  -1.5136928e+02  -1.5029953e+02  -1.4922978e+02  -1.4816003e+02  -1.4709029e+02  -1.4602054e+02  -1.4495079e+02  -1.4388104e+02  -1.4281130e+02  -1.4174155e+02  -1.4067180e+02  -1.3960205e+02  -1.3789046e+02  -1.3617886e+02  -1.3414634e+02  -1.3211382e+02  -1.3008130e+02  -1.2804878e+02  -1.2580231e+02  -1.2355584e+02  -1.2114891e+02  -1.1874198e+02  -1.1671710e+02  -1.1469222e+02  -1.1324042e+02  -1.1178862e+02  -1.1033682e+02  -1.0888502e+02  -1.0743322e+02  -1.0598142e+02  -1.0452962e+02  -1.0307782e+02  -1.0133566e+02  -9.9593496e+01  -9.7560976e+01  -9.5528455e+01  -9.3495935e+01  -9.1463415e+01  -8.7652439e+01  -8.3841463e+01  -8.0030488e+01  -7.6219512e+01  -7.2408537e+01  -6.8597561e+01  -6.4786585e+01  -6.0975610e+01  -5.5894309e+01  -5.0813008e+01  -4.5731707e+01  -4.0650407e+01  -3.5569106e+01  -3.0487805e+01  -2.5584750e+01  -2.0681695e+01  -1.5778640e+01  -1.0875586e+01  -8.8493834e+00  -6.8231811e+00  -6.2972657e+00  -5.7713503e+00  -2.4923035e+00   7.8674320e-01   4.0657899e+00   7.3448367e+00   9.1957392e+00   1.1046642e+01   1.2270576e+01   1.3494510e+01   2.1344169e+01   2.9193828e+01   3.4309377e+01   3.9424926e+01   4.5927848e+01   5.2430770e+01   5.9468635e+01   6.6506500e+01   7.3152725e+01   7.9798950e+01   9.0638954e+01   1.0147896e+02   1.1093247e+02   1.2038599e+02   1.2755825e+02   1.3473051e+02   1.4101533e+02   1.4730016e+02   1.5225611e+02   1.5721207e+02   1.6120054e+02   1.6518901e+02   1.7051411e+02   1.7583920e+02   1.8223380e+02   1.8862840e+02   1.9767016e+02   2.0671191e+02   2.1598327e+02   2.2525462e+02   2.3032300e+02   2.3539137e+02   2.4128876e+02   2.4718614e+02   2.5259634e+02   2.5800655e+02   2.6426721e+02   2.7052788e+02   2.7679854e+02   2.8306920e+02   2.9104405e+02   2.9901891e+02   3.0818910e+02   3.1735930e+02   3.2275639e+02   3.2815349e+02   3.3203865e+02   3.3592381e+02   3.3921954e+02   3.4251527e+02   3.4557021e+02   3.4862514e+02   3.5053667e+02   3.5244820e+02   3.5440890e+02   3.5636961e+02
-4.7038328e+01  -4.8780488e+01  -5.0522648e+01  -5.2264808e+01  -5.5974806e+01  -5.9684803e+01  -6.5854597e+01  -7.2024390e+01  -7.8194184e+01  -8.4363977e+01  -9.0533771e+01  -9.6703565e+01  -1.0287336e+02  -1.0904315e+02  -1.1486900e+02  -1.2069485e+02  -1.2548885e+02  -1.3028286e+02  -1.3503968e+02  -1.3979649e+02  -1.3931231e+02  -1.3882812e+02  -1.3716411e+02  -1.3550009e+02  -1.3529020e+02  -1.3508032e+02  -1.3492851e+02  -1.3477671e+02  -1.3456896e+02  -1.3436120e+02  -1.3335734e+02  -1.3235347e+02  -1.3134961e+02  -1.3034575e+02  -1.2934188e+02  -1.2833802e+02  -1.2733416e+02  -1.2633029e+02  -1.2532643e+02  -1.2432257e+02  -1.2331870e+02  -1.2231484e+02  -1.2231497e+02  -1.2231511e+02  -1.2347778e+02  -1.2464046e+02  -1.2625236e+02  -1.2786425e+02  -1.2950257e+02  -1.3114089e+02  -1.3276341e+02  -1.3438593e+02  -1.3596631e+02  -1.3754670e+02  -1.3941431e+02  -1.4128191e+02  -1.4337387e+02  -1.4546583e+02  -1.4755779e+02  -1.4964974e+02  -1.5039571e+02  -1.5114167e+02  -1.4963378e+02  -1.4812589e+02  -1.4680578e+02  -1.4548567e+02  -1.4441592e+02  -1.4334617e+02  -1.4227642e+02  -1.4120668e+02  -1.4013693e+02  -1.3906718e+02  -1.3799743e+02  -1.3692769e+02  -1.3553701e+02  -1.3414634e+02  -1.3211382e+02  -1.3008130e+02  -1.2804878e+02  -1.2601626e+02  -1.2387677e+02  -1.2173727e+02  -1.1943731e+02  -1.1713736e+02  -1.1492145e+02  -1.1270554e+02  -1.1115823e+02  -1.0961092e+02  -1.0815912e+02  -1.0670732e+02  -1.0525552e+02  -1.0380372e+02  -1.0235192e+02  -1.0090012e+02  -9.9230546e+01  -9.7560976e+01  -9.5528455e+01  -9.3495935e+01  -9.0574187e+01  -8.7652439e+01  -8.3841463e+01  -8.0030488e+01  -7.6219512e+01  -7.2408537e+01  -6.8597561e+01  -6.4786585e+01  -6.0975610e+01  -5.7164634e+01  -5.2295054e+01  -4.7425474e+01  -4.2344173e+01  -3.7262873e+01  -3.1903163e+01  -2.6543454e+01  -1.9935283e+01  -1.3327113e+01  -8.4240583e+00  -3.5210035e+00  -2.2140143e+00  -9.0702516e-01  -1.0693926e+00  -1.2317600e+00   1.7940597e+00   4.8198793e+00   7.4404799e+00   1.0061080e+01   1.2504259e+01   1.4947437e+01   1.6359310e+01   1.7771183e+01   2.5230893e+01   3.2690603e+01   3.9008330e+01   4.5326057e+01   5.0868482e+01   5.6410907e+01   6.3344564e+01   7.0278221e+01   7.8269596e+01   8.6260971e+01   9.6262874e+01   1.0626478e+02   1.1548442e+02   1.2470406e+02   1.3242026e+02   1.4013646e+02   1.4636494e+02   1.5259341e+02   1.5797032e+02   1.6334723e+02   1.6611715e+02   1.6888707e+02   1.7493249e+02   1.8097791e+02   1.8878543e+02   1.9659295e+02   2.0516914e+02   2.1374532e+02   2.2156371e+02   2.2938209e+02   2.3473644e+02   2.4009079e+02   2.4612826e+02   2.5216574e+02   2.5764001e+02   2.6311429e+02   2.6947594e+02   2.7583758e+02   2.8273419e+02   2.8963080e+02   2.9703748e+02   3.0444417e+02   3.1237556e+02   3.2030695e+02   3.2582017e+02   3.3133339e+02   3.3547311e+02   3.3961282e+02   3.4277902e+02   3.4594522e+02   3.4904595e+02   3.5214668e+02   3.5443024e+02   3.5671381e+02   3.5911105e+02   3.6150830e+02
-4.9651568e+01  -5.1393728e+01  -5.3135889e+01  -5.4878049e+01  -5.7604128e+01  -6.0330206e+01  -6.6500000e+01  -7.2669794e+01  -7.8839587e+01  -8.5009381e+01  -9.1179174e+01  -9.7348968e+01  -1.0351876e+02  -1.0968856e+02  -1.1585835e+02  -1.2202814e+02  -1.2819794e+02  -1.3436773e+02  -1.4053752e+02  -1.4670732e+02  -1.4249428e+02  -1.3828125e+02  -1.3746690e+02  -1.3665256e+02  -1.3640466e+02  -1.3615676e+02  -1.3606091e+02  -1.3596506e+02  -1.3655341e+02  -1.3714177e+02  -1.3613790e+02  -1.3513404e+02  -1.3413018e+02  -1.3312631e+02  -1.3212245e+02  -1.3111859e+02  -1.3011472e+02  -1.2911086e+02  -1.2810700e+02  -1.2710313e+02  -1.2609927e+02  -1.2509541e+02  -1.2470939e+02  -1.2432337e+02  -1.2532750e+02  -1.2633163e+02  -1.2791710e+02  -1.2950257e+02  -1.3114089e+02  -1.3277920e+02  -1.3441752e+02  -1.3605584e+02  -1.3767309e+02  -1.3929035e+02  -1.4098345e+02  -1.4267655e+02  -1.4476851e+02  -1.4686047e+02  -1.4895242e+02  -1.5104438e+02  -1.5044435e+02  -1.4984432e+02  -1.4789829e+02  -1.4595226e+02  -1.4438178e+02  -1.4281130e+02  -1.4174155e+02  -1.4067180e+02  -1.3960205e+02  -1.3853231e+02  -1.3746256e+02  -1.3639281e+02  -1.3532306e+02  -1.3425332e+02  -1.3318357e+02  -1.3211382e+02  -1.3008130e+02  -1.2804878e+02  -1.2601626e+02  -1.2398374e+02  -1.2195122e+02  -1.1991870e+02  -1.1772572e+02  -1.1553273e+02  -1.1312580e+02  -1.1071887e+02  -1.0907604e+02  -1.0743322e+02  -1.0598142e+02  -1.0452962e+02  -1.0307782e+02  -1.0162602e+02  -1.0017422e+02  -9.8722416e+01  -9.7125436e+01  -9.5528455e+01  -9.3495935e+01  -9.1463415e+01  -8.7652439e+01  -8.3841463e+01  -8.0030488e+01  -7.6219512e+01  -7.2408537e+01  -6.8597561e+01  -6.4786585e+01  -6.0975610e+01  -5.7164634e+01  -5.3353659e+01  -4.8695799e+01  -4.4037940e+01  -3.8956640e+01  -3.3875339e+01  -2.8237221e+01  -2.2599102e+01  -1.4285817e+01  -5.9725309e+00  -1.0694760e+00   3.8335788e+00   4.4213548e+00   5.0091308e+00   4.1584805e+00   3.3078303e+00   6.0804228e+00   8.8530154e+00   1.0815170e+01   1.2777324e+01   1.5812778e+01   1.8848232e+01   2.0448043e+01   2.2047855e+01   2.9117616e+01   3.6187377e+01   4.3707283e+01   5.1227188e+01   5.5809116e+01   6.0391044e+01   6.7220493e+01   7.4049942e+01   8.3386466e+01   9.2722991e+01   1.0188679e+02   1.1105060e+02   1.2003636e+02   1.2902212e+02   1.3728226e+02   1.4554240e+02   1.5171454e+02   1.5788667e+02   1.6368453e+02   1.6948239e+02   1.7103376e+02   1.7258513e+02   1.7935088e+02   1.8611662e+02   1.9533706e+02   2.0455749e+02   2.1266811e+02   2.2077873e+02   2.2714415e+02   2.3350957e+02   2.3914989e+02   2.4479021e+02   2.5096777e+02   2.5714534e+02   2.6268368e+02   2.6822203e+02   2.7468466e+02   2.8114729e+02   2.8866985e+02   2.9619240e+02   3.0303091e+02   3.0986943e+02   3.1656201e+02   3.2325459e+02   3.2888394e+02   3.3451329e+02   3.3890756e+02   3.4330183e+02   3.4633850e+02   3.4937517e+02   3.5252170e+02   3.5566823e+02   3.5832382e+02   3.6097942e+02   3.6381320e+02   3.6664699e+02
-5.2651955e+01  -5.4006969e+01  -5.5749129e+01  -5.7491289e+01  -5.9725409e+01  -6.1959528e+01  -6.7637363e+01  -7.3315197e+01  -7.9484991e+01  -8.5654784e+01  -9.1824578e+01  -9.7994371e+01  -1.0416417e+02  -1.1033396e+02  -1.1650375e+02  -1.2267355e+02  -1.2884334e+02  -1.3501313e+02  -1.4058679e+02  -1.4616044e+02  -1.4251386e+02  -1.3886727e+02  -1.3833615e+02  -1.3780503e+02  -1.3755713e+02  -1.3730923e+02  -1.3713735e+02  -1.3696548e+02  -1.3724974e+02  -1.3753401e+02  -1.3732625e+02  -1.3711850e+02  -1.3651269e+02  -1.3590688e+02  -1.3490302e+02  -1.3389915e+02  -1.3289529e+02  -1.3189143e+02  -1.3088756e+02  -1.2988370e+02  -1.2887984e+02  -1.2787597e+02  -1.2718103e+02  -1.2648609e+02  -1.2741299e+02  -1.2833989e+02  -1.2974039e+02  -1.3114089e+02  -1.3277920e+02  -1.3441752e+02  -1.3605584e+02  -1.3769416e+02  -1.3932195e+02  -1.4094973e+02  -1.4261017e+02  -1.4427062e+02  -1.4626286e+02  -1.4825510e+02  -1.4967407e+02  -1.5109303e+02  -1.4982000e+02  -1.4854696e+02  -1.4660093e+02  -1.4465490e+02  -1.4289665e+02  -1.4113839e+02  -1.3963050e+02  -1.3812262e+02  -1.3699028e+02  -1.3585794e+02  -1.3478819e+02  -1.3371844e+02  -1.3264869e+02  -1.3157895e+02  -1.3050920e+02  -1.2943945e+02  -1.2772786e+02  -1.2601626e+02  -1.2398374e+02  -1.2195122e+02  -1.1991870e+02  -1.1788618e+02  -1.1577343e+02  -1.1366068e+02  -1.1138746e+02  -1.0911425e+02  -1.0718488e+02  -1.0525552e+02  -1.0380372e+02  -1.0235192e+02  -1.0090012e+02  -9.9448316e+01  -9.7996516e+01  -9.6544715e+01  -9.5020325e+01  -9.3495935e+01  -9.0574187e+01  -8.7652439e+01  -8.3841463e+01  -8.0030488e+01  -7.6219512e+01  -7.2408537e+01  -6.8597561e+01  -6.4786585e+01  -6.0975610e+01  -5.7164634e+01  -5.3353659e+01  -4.9542683e+01  -4.5096545e+01  -4.0650407e+01  -3.5429901e+01  -3.0209396e+01  -2.4432074e+01  -1.8654751e+01  -1.0940655e+01  -3.2265592e+00   3.9808009e+00   1.1188161e+01   1.4517365e+01   1.7846570e+01   1.5208384e+01   1.2570198e+01   1.4861968e+01   1.7153739e+01   1.6950592e+01   1.6747446e+01   1.8865634e+01   2.0983823e+01   2.3581479e+01   2.6179134e+01   3.1568065e+01   3.6956996e+01   4.5362464e+01   5.3767932e+01   5.9677715e+01   6.5587497e+01   7.1519392e+01   7.7451286e+01   8.6078109e+01   9.4704933e+01   1.0475308e+02   1.1480122e+02   1.2465859e+02   1.3451596e+02   1.4231371e+02   1.5011146e+02   1.5639993e+02   1.6268840e+02   1.6863448e+02   1.7458056e+02   1.7580596e+02   1.7703136e+02   1.8424229e+02   1.9145322e+02   1.9932038e+02   2.0718754e+02   2.1604059e+02   2.2489365e+02   2.3028716e+02   2.3568068e+02   2.4111023e+02   2.4653978e+02   2.5315474e+02   2.5976970e+02   2.6562442e+02   2.7147914e+02   2.7784684e+02   2.8421454e+02   2.9121041e+02   2.9820628e+02   3.0475723e+02   3.1130818e+02   3.1732973e+02   3.2335129e+02   3.2839434e+02   3.3343739e+02   3.3807842e+02   3.4271945e+02   3.4705263e+02   3.5138580e+02   3.5501742e+02   3.5864903e+02   3.6163013e+02   3.6461124e+02   3.6750758e+02   3.7040393e+02
-5.5652342e+01  -5.6620209e+01  -5.8362369e+01  -6.0104530e+01  -6.1846690e+01  -6.3588850e+01  -6.8774725e+01  -7.3960600e+01  -8.0130394e+01  -8.6300188e+01  -9.2469981e+01  -9.8639775e+01  -1.0480957e+02  -1.1097936e+02  -1.1714916e+02  -1.2331895e+02  -1.2948874e+02  -1.3565854e+02  -1.4063605e+02  -1.4561357e+02  -1.4253343e+02  -1.3945329e+02  -1.3920539e+02  -1.3895749e+02  -1.3870960e+02  -1.3846170e+02  -1.3821380e+02  -1.3796590e+02  -1.3794607e+02  -1.3792624e+02  -1.3851460e+02  -1.3910295e+02  -1.3889520e+02  -1.3868745e+02  -1.3768358e+02  -1.3667972e+02  -1.3567586e+02  -1.3467199e+02  -1.3366813e+02  -1.3266427e+02  -1.3166040e+02  -1.3065654e+02  -1.2965268e+02  -1.2864881e+02  -1.2949848e+02  -1.3034815e+02  -1.3156368e+02  -1.3277920e+02  -1.3441752e+02  -1.3605584e+02  -1.3769416e+02  -1.3933248e+02  -1.4097080e+02  -1.4260911e+02  -1.4423690e+02  -1.4586469e+02  -1.4775722e+02  -1.4964974e+02  -1.5039571e+02  -1.5114167e+02  -1.4919564e+02  -1.4724961e+02  -1.4530358e+02  -1.4335755e+02  -1.4141152e+02  -1.3946549e+02  -1.3751946e+02  -1.3557343e+02  -1.3437850e+02  -1.3318357e+02  -1.3211382e+02  -1.3104407e+02  -1.2997433e+02  -1.2890458e+02  -1.2783483e+02  -1.2676508e+02  -1.2537441e+02  -1.2398374e+02  -1.2195122e+02  -1.1991870e+02  -1.1788618e+02  -1.1585366e+02  -1.1382114e+02  -1.1178862e+02  -1.0964912e+02  -1.0750963e+02  -1.0529372e+02  -1.0307782e+02  -1.0162602e+02  -1.0017422e+02  -9.8722416e+01  -9.7270616e+01  -9.5818815e+01  -9.4367015e+01  -9.2915215e+01  -9.1463415e+01  -8.7652439e+01  -8.3841463e+01  -8.0030488e+01  -7.6219512e+01  -7.2408537e+01  -6.8597561e+01  -6.4786585e+01  -6.0975610e+01  -5.7164634e+01  -5.3353659e+01  -4.9542683e+01  -4.5731707e+01  -4.1497290e+01  -3.7262873e+01  -3.1903163e+01  -2.6543454e+01  -2.0626927e+01  -1.4710400e+01  -7.5954938e+00  -4.8058751e-01   9.0310778e+00   1.8542743e+01   2.4613376e+01   3.0684009e+01   2.6258287e+01   2.1832565e+01   2.3643514e+01   2.5454463e+01   2.3086015e+01   2.0717567e+01   2.1918491e+01   2.3119415e+01   2.6714914e+01   3.0310413e+01   3.4018514e+01   3.7726615e+01   4.7017646e+01   5.6308677e+01   6.3546314e+01   7.0783950e+01   7.5818290e+01   8.0852630e+01   8.8769752e+01   9.6686874e+01   1.0761936e+02   1.1855185e+02   1.2928082e+02   1.4000980e+02   1.4734516e+02   1.5468053e+02   1.6108533e+02   1.6749013e+02   1.7358443e+02   1.7967873e+02   1.8057816e+02   1.8147758e+02   1.8913370e+02   1.9678982e+02   2.0330370e+02   2.0981758e+02   2.1941307e+02   2.2900856e+02   2.3343018e+02   2.3785179e+02   2.4307057e+02   2.4828935e+02   2.5534170e+02   2.6239406e+02   2.6856515e+02   2.7473625e+02   2.8100902e+02   2.8728178e+02   2.9375098e+02   3.0022017e+02   3.0648355e+02   3.1274693e+02   3.1809746e+02   3.2344798e+02   3.2790474e+02   3.3236150e+02   3.3724928e+02   3.4213707e+02   3.4776675e+02   3.5339644e+02   3.5751314e+02   3.6162984e+02   3.6493645e+02   3.6824306e+02   3.7120196e+02   3.7416087e+02
-5.9039876e+01  -6.0007743e+01  -6.1362756e+01  -6.2717770e+01  -6.4459930e+01  -6.6202091e+01  -7.0404047e+01  -7.4606004e+01  -8.0775797e+01  -8.6945591e+01  -9.3115385e+01  -9.9285178e+01  -1.0545497e+02  -1.1162477e+02  -1.1779456e+02  -1.2396435e+02  -1.3068683e+02  -1.3740930e+02  -1.4123800e+02  -1.4506669e+02  -1.4283623e+02  -1.4060576e+02  -1.4035786e+02  -1.4010996e+02  -1.3986206e+02  -1.3961417e+02  -1.3936627e+02  -1.3911837e+02  -1.3898451e+02  -1.3885064e+02  -1.3917292e+02  -1.3949519e+02  -1.3968549e+02  -1.3987579e+02  -1.3966804e+02  -1.3946029e+02  -1.3845642e+02  -1.3745256e+02  -1.3644870e+02  -1.3544483e+02  -1.3444097e+02  -1.3343711e+02  -1.3243324e+02  -1.3142938e+02  -1.3189290e+02  -1.3235641e+02  -1.3346624e+02  -1.3457607e+02  -1.3613511e+02  -1.3769416e+02  -1.3933248e+02  -1.4097080e+02  -1.4260911e+02  -1.4424743e+02  -1.4588048e+02  -1.4751354e+02  -1.4927896e+02  -1.5104438e+02  -1.5044435e+02  -1.4984432e+02  -1.4789829e+02  -1.4595226e+02  -1.4400623e+02  -1.4206020e+02  -1.4011417e+02  -1.3816814e+02  -1.3622211e+02  -1.3427608e+02  -1.3270560e+02  -1.3113512e+02  -1.2975241e+02  -1.2836970e+02  -1.2729996e+02  -1.2623021e+02  -1.2516046e+02  -1.2409071e+02  -1.2286050e+02  -1.2163030e+02  -1.1975824e+02  -1.1788618e+02  -1.1585366e+02  -1.1382114e+02  -1.1178862e+02  -1.0975610e+02  -1.0767009e+02  -1.0558408e+02  -1.0343313e+02  -1.0128217e+02  -9.9639342e+01  -9.7996516e+01  -9.6544715e+01  -9.5092915e+01  -9.3278165e+01  -9.1463415e+01  -8.9285714e+01  -8.7108014e+01  -8.3024826e+01  -7.8941638e+01  -7.5114650e+01  -7.1287661e+01  -6.7588773e+01  -6.3889885e+01  -6.0190997e+01  -5.6492109e+01  -5.2793221e+01  -4.9094333e+01  -4.5395445e+01  -4.1696557e+01  -3.7785948e+01  -3.3875339e+01  -2.8237221e+01  -2.2599102e+01  -1.6682576e+01  -1.0766049e+01  -4.2503324e+00   2.2653842e+00   1.2140241e+01   2.2015098e+01   2.9604752e+01   3.7194406e+01   3.6057433e+01   3.4920459e+01   3.3543841e+01   3.2167222e+01   2.9550458e+01   2.6933694e+01   2.7274080e+01   2.7614465e+01   3.0606254e+01   3.3598043e+01   3.7143837e+01   4.0689632e+01   4.8040008e+01   5.5390384e+01   6.4845252e+01   7.4300121e+01   7.9289712e+01   8.4279304e+01   9.1761501e+01   9.9243698e+01   1.1115093e+02   1.2305817e+02   1.3290096e+02   1.4274375e+02   1.5012425e+02   1.5750474e+02   1.6422560e+02   1.7094645e+02   1.7733984e+02   1.8373323e+02   1.8511929e+02   1.8650536e+02   1.9365359e+02   2.0080183e+02   2.0782581e+02   2.1484978e+02   2.2321123e+02   2.3157268e+02   2.3622018e+02   2.4086768e+02   2.4575337e+02   2.5063907e+02   2.5770161e+02   2.6476414e+02   2.7105787e+02   2.7735159e+02   2.8326649e+02   2.8918140e+02   2.9527783e+02   3.0137427e+02   3.0715004e+02   3.1292581e+02   3.1799353e+02   3.2306125e+02   3.2780193e+02   3.3254260e+02   3.3698537e+02   3.4142815e+02   3.4706847e+02   3.5270879e+02   3.5770005e+02   3.6269131e+02   3.6658011e+02   3.7046890e+02   3.7353259e+02   3.7659628e+02
-6.2427410e+01  -6.3395277e+01  -6.4363144e+01  -6.5331010e+01  -6.7073171e+01  -6.8815331e+01  -7.2033369e+01  -7.5251407e+01  -8.1421201e+01  -8.7590994e+01  -9.3760788e+01  -9.9930582e+01  -1.0610038e+02  -1.1227017e+02  -1.1843996e+02  -1.2460976e+02  -1.3188491e+02  -1.3916006e+02  -1.4183994e+02  -1.4451982e+02  -1.4313902e+02  -1.4175823e+02  -1.4151033e+02  -1.4126243e+02  -1.4101453e+02  -1.4076664e+02  -1.4051874e+02  -1.4027084e+02  -1.4002294e+02  -1.3977504e+02  -1.3983124e+02  -1.3988743e+02  -1.4047579e+02  -1.4106414e+02  -1.4165250e+02  -1.4224085e+02  -1.4123699e+02  -1.4023313e+02  -1.3922926e+02  -1.3822540e+02  -1.3722154e+02  -1.3621767e+02  -1.3521381e+02  -1.3420995e+02  -1.3428731e+02  -1.3436467e+02  -1.3536880e+02  -1.3637293e+02  -1.3785271e+02  -1.3933248e+02  -1.4097080e+02  -1.4260911e+02  -1.4424743e+02  -1.4588575e+02  -1.4752407e+02  -1.4916239e+02  -1.5080071e+02  -1.5243902e+02  -1.5049299e+02  -1.4854696e+02  -1.4660093e+02  -1.4465490e+02  -1.4270887e+02  -1.4076284e+02  -1.3881681e+02  -1.3687078e+02  -1.3492475e+02  -1.3297872e+02  -1.3103269e+02  -1.2908666e+02  -1.2739100e+02  -1.2569534e+02  -1.2462559e+02  -1.2355584e+02  -1.2248609e+02  -1.2141635e+02  -1.2034660e+02  -1.1927685e+02  -1.1756525e+02  -1.1585366e+02  -1.1382114e+02  -1.1178862e+02  -1.0975610e+02  -1.0772358e+02  -1.0569106e+02  -1.0365854e+02  -1.0157253e+02  -9.9486521e+01  -9.7652668e+01  -9.5818815e+01  -9.4367015e+01  -9.2915215e+01  -9.0737515e+01  -8.8559814e+01  -8.5656214e+01  -8.2752613e+01  -7.8397213e+01  -7.4041812e+01  -7.0198811e+01  -6.6355811e+01  -6.2769010e+01  -5.9182209e+01  -5.5595409e+01  -5.2008608e+01  -4.8421808e+01  -4.4835007e+01  -4.1248207e+01  -3.7661406e+01  -3.4074605e+01  -3.0487805e+01  -2.4571278e+01  -1.8654751e+01  -1.2738225e+01  -6.8216977e+00  -9.0517095e-01   5.0113558e+00   1.5249404e+01   2.5487453e+01   3.4596128e+01   4.3704803e+01   4.5856578e+01   4.8008354e+01   4.3444168e+01   3.8879981e+01   3.6014902e+01   3.3149822e+01   3.2629669e+01   3.2109516e+01   3.4497594e+01   3.6885673e+01   4.0269161e+01   4.3652648e+01   4.9062370e+01   5.4472091e+01   6.6144191e+01   7.7816291e+01   8.2761135e+01   8.7705978e+01   9.4753250e+01   1.0180052e+02   1.1468250e+02   1.2756448e+02   1.3652109e+02   1.4547771e+02   1.5290334e+02   1.6032896e+02   1.6736587e+02   1.7440277e+02   1.8109525e+02   1.8778773e+02   1.8966043e+02   1.9153313e+02   1.9817348e+02   2.0481383e+02   2.1234791e+02   2.1988199e+02   2.2700939e+02   2.3413679e+02   2.3901018e+02   2.4388356e+02   2.4843617e+02   2.5298878e+02   2.6006151e+02   2.6713423e+02   2.7355058e+02   2.7996693e+02   2.8552397e+02   2.9108101e+02   2.9680469e+02   3.0252837e+02   3.0781653e+02   3.1310469e+02   3.1788960e+02   3.2267451e+02   3.2769911e+02   3.3272371e+02   3.3672147e+02   3.4071922e+02   3.4637018e+02   3.5202113e+02   3.5788696e+02   3.6375279e+02   3.6822377e+02   3.7269475e+02   3.7586322e+02   3.7903169e+02
-6.5814944e+01  -6.6782811e+01  -6.7750678e+01  -6.8718544e+01  -7.0073558e+01  -7.1428571e+01  -7.3908671e+01  -7.6388770e+01  -8.2312584e+01  -8.8236398e+01  -9.4406191e+01  -1.0057598e+02  -1.0674578e+02  -1.1291557e+02  -1.1963805e+02  -1.2636052e+02  -1.3363567e+02  -1.4091082e+02  -1.4272511e+02  -1.4453939e+02  -1.4372504e+02  -1.4291070e+02  -1.4266280e+02  -1.4241490e+02  -1.4216700e+02  -1.4191910e+02  -1.4167121e+02  -1.4142331e+02  -1.4117541e+02  -1.4092751e+02  -1.4083166e+02  -1.4073581e+02  -1.4109609e+02  -1.4145638e+02  -1.4204473e+02  -1.4263309e+02  -1.4242534e+02  -1.4221758e+02  -1.4161177e+02  -1.4100597e+02  -1.4000210e+02  -1.3899824e+02  -1.3799438e+02  -1.3699051e+02  -1.3668172e+02  -1.3637293e+02  -1.3737707e+02  -1.3838120e+02  -1.3967600e+02  -1.4097080e+02  -1.4260911e+02  -1.4424743e+02  -1.4588575e+02  -1.4752407e+02  -1.4916239e+02  -1.5080071e+02  -1.5077298e+02  -1.5074526e+02  -1.4899743e+02  -1.4724961e+02  -1.4530358e+02  -1.4335755e+02  -1.4141152e+02  -1.3946549e+02  -1.3751946e+02  -1.3557343e+02  -1.3362740e+02  -1.3168137e+02  -1.2973534e+02  -1.2778931e+02  -1.2596846e+02  -1.2414762e+02  -1.2263973e+02  -1.2113184e+02  -1.1993691e+02  -1.1874198e+02  -1.1767223e+02  -1.1660248e+02  -1.1521181e+02  -1.1382114e+02  -1.1178862e+02  -1.0975610e+02  -1.0772358e+02  -1.0569106e+02  -1.0365854e+02  -1.0162602e+02  -9.9566752e+01  -9.7507488e+01  -9.5574302e+01  -9.3641115e+01  -9.1463415e+01  -8.9285714e+01  -8.6745064e+01  -8.4204413e+01  -8.1300813e+01  -7.8397213e+01  -7.4041812e+01  -6.9686411e+01  -6.5587210e+01  -6.1488010e+01  -5.7645009e+01  -5.3802009e+01  -5.0215208e+01  -4.6628407e+01  -4.3041607e+01  -3.9454806e+01  -3.6114678e+01  -3.2774549e+01  -2.9681092e+01  -2.6587636e+01  -2.1255938e+01  -1.5924240e+01  -9.8076246e+00  -3.6910087e+00   2.4161044e+00   8.5232176e+00   1.8457069e+01   2.8390920e+01   3.8333231e+01   4.8275543e+01   5.2347679e+01   5.6419815e+01   5.3708990e+01   5.0998165e+01   4.5817013e+01   4.0635862e+01   3.9766735e+01   3.8897607e+01   3.9945311e+01   4.0993015e+01   4.4254581e+01   4.7516147e+01   5.1811981e+01   5.6107814e+01   6.5106361e+01   7.4104907e+01   8.2568191e+01   9.1031475e+01   9.7765523e+01   1.0449957e+02   1.1454942e+02   1.2459927e+02   1.3483366e+02   1.4506805e+02   1.5406913e+02   1.6307021e+02   1.7076057e+02   1.7845094e+02   1.8529683e+02   1.9214271e+02   1.9501118e+02   1.9787965e+02   2.0288605e+02   2.0789246e+02   2.1594481e+02   2.2399717e+02   2.3096639e+02   2.3793561e+02   2.4207233e+02   2.4620904e+02   2.5068536e+02   2.5516167e+02   2.6158771e+02   2.6801376e+02   2.7481707e+02   2.8162038e+02   2.8721455e+02   2.9280872e+02   2.9804227e+02   3.0327582e+02   3.0788056e+02   3.1248531e+02   3.1698508e+02   3.2148486e+02   3.2666141e+02   3.3183797e+02   3.3634192e+02   3.4084587e+02   3.4589217e+02   3.5093846e+02   3.5729320e+02   3.6364793e+02   3.6855763e+02   3.7346733e+02   3.7703579e+02   3.8060425e+02
-6.9202478e+01  -7.0170345e+01  -7.1138211e+01  -7.2106078e+01  -7.3073945e+01  -7.4041812e+01  -7.5783972e+01  -7.7526132e+01  -8.3203967e+01  -8.8881801e+01  -9.5051595e+01  -1.0122139e+02  -1.0739118e+02  -1.1356098e+02  -1.2083613e+02  -1.2811128e+02  -1.3538643e+02  -1.4266159e+02  -1.4361027e+02  -1.4455896e+02  -1.4431106e+02  -1.4406317e+02  -1.4381527e+02  -1.4356737e+02  -1.4331947e+02  -1.4307157e+02  -1.4282367e+02  -1.4257578e+02  -1.4232788e+02  -1.4207998e+02  -1.4183208e+02  -1.4158418e+02  -1.4171640e+02  -1.4184862e+02  -1.4243697e+02  -1.4302533e+02  -1.4361368e+02  -1.4420204e+02  -1.4399429e+02  -1.4378653e+02  -1.4278267e+02  -1.4177881e+02  -1.4077494e+02  -1.3977108e+02  -1.3907614e+02  -1.3838120e+02  -1.3938533e+02  -1.4038946e+02  -1.4149929e+02  -1.4260911e+02  -1.4424743e+02  -1.4588575e+02  -1.4752407e+02  -1.4916239e+02  -1.5080071e+02  -1.5243902e+02  -1.5074526e+02  -1.4905149e+02  -1.4750187e+02  -1.4595226e+02  -1.4400623e+02  -1.4206020e+02  -1.4011417e+02  -1.3816814e+02  -1.3622211e+02  -1.3427608e+02  -1.3233005e+02  -1.3038402e+02  -1.2843799e+02  -1.2649196e+02  -1.2454593e+02  -1.2259990e+02  -1.2065387e+02  -1.1870784e+02  -1.1738772e+02  -1.1606761e+02  -1.1499786e+02  -1.1392811e+02  -1.1285837e+02  -1.1178862e+02  -1.0975610e+02  -1.0772358e+02  -1.0569106e+02  -1.0365854e+02  -1.0162602e+02  -9.9593496e+01  -9.7560976e+01  -9.5528455e+01  -9.3495935e+01  -9.1463415e+01  -8.8559814e+01  -8.5656214e+01  -8.2752613e+01  -7.9849013e+01  -7.6945412e+01  -7.4041812e+01  -6.9686411e+01  -6.5331010e+01  -6.0975610e+01  -5.6620209e+01  -5.2521008e+01  -4.8421808e+01  -4.4835007e+01  -4.1248207e+01  -3.7661406e+01  -3.4074605e+01  -3.0981149e+01  -2.7887692e+01  -2.5287580e+01  -2.2687467e+01  -1.7940598e+01  -1.3193729e+01  -6.8770246e+00  -5.6031976e-01   5.7373798e+00   1.2035079e+01   2.1664733e+01   3.1294387e+01   4.2070335e+01   5.2846282e+01   5.8838779e+01   6.4831275e+01   6.3973812e+01   6.3116348e+01   5.5619125e+01   4.8121902e+01   4.6903800e+01   4.5685699e+01   4.5393028e+01   4.5100357e+01   4.8240001e+01   5.1379646e+01   5.4561592e+01   5.7743537e+01   6.4068531e+01   7.0393524e+01   8.2375247e+01   9.4356971e+01   1.0077780e+02   1.0719862e+02   1.1441634e+02   1.2163405e+02   1.3314622e+02   1.4465840e+02   1.5523492e+02   1.6581145e+02   1.7415528e+02   1.8249911e+02   1.8949840e+02   1.9649770e+02   2.0036193e+02   2.0422617e+02   2.0759862e+02   2.1097108e+02   2.1954172e+02   2.2811235e+02   2.3492339e+02   2.4173442e+02   2.4513448e+02   2.4853453e+02   2.5293454e+02   2.5733455e+02   2.6311392e+02   2.6889329e+02   2.7608356e+02   2.8327382e+02   2.8890512e+02   2.9453642e+02   2.9927985e+02   3.0402327e+02   3.0794459e+02   3.1186592e+02   3.1608057e+02   3.2029521e+02   3.2562372e+02   3.3095222e+02   3.3596237e+02   3.4097252e+02   3.4541415e+02   3.4985579e+02   3.5669943e+02   3.6354308e+02   3.6889149e+02   3.7423991e+02   3.7820836e+02   3.8217680e+02
-7.2590012e+01  -7.3557878e+01  -7.4525745e+01  -7.5493612e+01  -7.6461479e+01  -7.7429346e+01  -7.8784359e+01  -8.0139373e+01  -8.4833289e+01  -8.9527205e+01  -9.5696998e+01  -1.0186679e+02  -1.0858926e+02  -1.1531174e+02  -1.2258689e+02  -1.2986204e+02  -1.3713720e+02  -1.4441235e+02  -1.4506189e+02  -1.4571143e+02  -1.4546353e+02  -1.4521563e+02  -1.4496774e+02  -1.4471984e+02  -1.4447194e+02  -1.4422404e+02  -1.4397614e+02  -1.4372824e+02  -1.4348035e+02  -1.4323245e+02  -1.4298455e+02  -1.4273665e+02  -1.4267881e+02  -1.4262097e+02  -1.4301927e+02  -1.4341757e+02  -1.4400592e+02  -1.4459428e+02  -1.4478458e+02  -1.4497488e+02  -1.4476713e+02  -1.4455937e+02  -1.4355551e+02  -1.4255165e+02  -1.4170224e+02  -1.4085284e+02  -1.4162528e+02  -1.4239772e+02  -1.4345470e+02  -1.4451168e+02  -1.4601787e+02  -1.4752407e+02  -1.4916239e+02  -1.5080071e+02  -1.5077298e+02  -1.5074526e+02  -1.4905149e+02  -1.4735772e+02  -1.4573603e+02  -1.4411434e+02  -1.4243859e+02  -1.4076284e+02  -1.3881681e+02  -1.3687078e+02  -1.3492475e+02  -1.3297872e+02  -1.3103269e+02  -1.2908666e+02  -1.2714063e+02  -1.2519460e+02  -1.2324857e+02  -1.2130254e+02  -1.1935651e+02  -1.1741048e+02  -1.1577741e+02  -1.1414434e+02  -1.1269904e+02  -1.1125374e+02  -1.1018400e+02  -1.0911425e+02  -1.0740265e+02  -1.0569106e+02  -1.0365854e+02  -1.0162602e+02  -9.9593496e+01  -9.7560976e+01  -9.5528455e+01  -9.3495935e+01  -9.0574187e+01  -8.7652439e+01  -8.4476626e+01  -8.1300813e+01  -7.8397213e+01  -7.5493612e+01  -7.2590012e+01  -6.9686411e+01  -6.5331010e+01  -6.0975610e+01  -5.6620209e+01  -5.2264808e+01  -4.8037508e+01  -4.3810207e+01  -3.9839106e+01  -3.5868006e+01  -3.2774549e+01  -2.9681092e+01  -2.6834308e+01  -2.3987523e+01  -2.1387410e+01  -1.8787298e+01  -1.4834850e+01  -1.0882402e+01  -4.5561943e+00   1.7700132e+00   8.0867180e+00   1.4403423e+01   2.3097829e+01   3.1792236e+01   4.4679077e+01   5.7565917e+01   6.4236995e+01   7.0908073e+01   7.3011892e+01   7.5115711e+01   7.2306343e+01   6.9496974e+01   6.5977447e+01   6.2457920e+01   6.3236757e+01   6.4015594e+01   6.2116058e+01   6.0216522e+01   6.0975885e+01   6.1735248e+01   6.6690578e+01   7.1645908e+01   8.1560098e+01   9.1474288e+01   9.8546905e+01   1.0561952e+02   1.1439020e+02   1.2316088e+02   1.3385667e+02   1.4455247e+02   1.5551608e+02   1.6647970e+02   1.7528292e+02   1.8408614e+02   1.9126186e+02   1.9843759e+02   2.0292077e+02   2.0740395e+02   2.1105783e+02   2.1471172e+02   2.2264068e+02   2.3056964e+02   2.3716931e+02   2.4376898e+02   2.4736710e+02   2.5096521e+02   2.5485689e+02   2.5874858e+02   2.6434870e+02   2.6994882e+02   2.7690512e+02   2.8386142e+02   2.8956254e+02   2.9526366e+02   2.9985520e+02   3.0444675e+02   3.0835136e+02   3.1225598e+02   3.1637508e+02   3.2049417e+02   3.2549793e+02   3.3050169e+02   3.3530307e+02   3.4010445e+02   3.4517158e+02   3.5023872e+02   3.5705362e+02   3.6386851e+02   3.6939725e+02   3.7492598e+02   3.7931935e+02   3.8371272e+02
-7.5977545e+01  -7.6945412e+01  -7.7913279e+01  -7.8881146e+01  -7.9849013e+01  -8.0816880e+01  -8.1784746e+01  -8.2752613e+01  -8.6462611e+01  -9.0172608e+01  -9.6342402e+01  -1.0251220e+02  -1.0978735e+02  -1.1706250e+02  -1.2433765e+02  -1.3161280e+02  -1.3888796e+02  -1.4616311e+02  -1.4651350e+02  -1.4686390e+02  -1.4661600e+02  -1.4636810e+02  -1.4612020e+02  -1.4587231e+02  -1.4562441e+02  -1.4537651e+02  -1.4512861e+02  -1.4488071e+02  -1.4463281e+02  -1.4438492e+02  -1.4413702e+02  -1.4388912e+02  -1.4364122e+02  -1.4339332e+02  -1.4360156e+02  -1.4380980e+02  -1.4439816e+02  -1.4498652e+02  -1.4557487e+02  -1.4616323e+02  -1.4675158e+02  -1.4733994e+02  -1.4633608e+02  -1.4533221e+02  -1.4432835e+02  -1.4332448e+02  -1.4386523e+02  -1.4440598e+02  -1.4541011e+02  -1.4641424e+02  -1.4778831e+02  -1.4916239e+02  -1.5080071e+02  -1.5243902e+02  -1.5074526e+02  -1.4905149e+02  -1.4735772e+02  -1.4566396e+02  -1.4397019e+02  -1.4227642e+02  -1.4087096e+02  -1.3946549e+02  -1.3751946e+02  -1.3557343e+02  -1.3362740e+02  -1.3168137e+02  -1.2973534e+02  -1.2778931e+02  -1.2584328e+02  -1.2389725e+02  -1.2195122e+02  -1.2000519e+02  -1.1805916e+02  -1.1611313e+02  -1.1416710e+02  -1.1222107e+02  -1.1040022e+02  -1.0857938e+02  -1.0750963e+02  -1.0643988e+02  -1.0504921e+02  -1.0365854e+02  -1.0162602e+02  -9.9593496e+01  -9.7560976e+01  -9.5528455e+01  -9.3495935e+01  -9.1463415e+01  -8.7652439e+01  -8.3841463e+01  -8.0393438e+01  -7.6945412e+01  -7.4041812e+01  -7.1138211e+01  -6.8234611e+01  -6.5331010e+01  -6.0975610e+01  -5.6620209e+01  -5.2264808e+01  -4.7909408e+01  -4.3554007e+01  -3.9198606e+01  -3.4843206e+01  -3.0487805e+01  -2.7887692e+01  -2.5287580e+01  -2.2687467e+01  -2.0087354e+01  -1.7487241e+01  -1.4887129e+01  -1.1729101e+01  -8.5710740e+00  -2.2353640e+00   4.1003461e+00   1.0436056e+01   1.6771766e+01   2.4530925e+01   3.2290084e+01   4.7287818e+01   6.2285552e+01   6.9635211e+01   7.6984870e+01   8.2049972e+01   8.7115074e+01   8.8993560e+01   9.0872047e+01   8.5051094e+01   7.9230140e+01   8.1080486e+01   8.2930831e+01   7.5992115e+01   6.9053398e+01   6.7390178e+01   6.5726959e+01   6.9312625e+01   7.2898292e+01   8.0744949e+01   8.8591606e+01   9.6316013e+01   1.0404042e+02   1.1436407e+02   1.2468771e+02   1.3456712e+02   1.4444653e+02   1.5579724e+02   1.6714795e+02   1.7641055e+02   1.8567316e+02   1.9302532e+02   2.0037749e+02   2.0547961e+02   2.1058174e+02   2.1451704e+02   2.1845235e+02   2.2573964e+02   2.3302693e+02   2.3941524e+02   2.4580354e+02   2.4959972e+02   2.5339589e+02   2.5677925e+02   2.6016261e+02   2.6558348e+02   2.7100435e+02   2.7772668e+02   2.8444902e+02   2.9021995e+02   2.9599089e+02   3.0043056e+02   3.0487022e+02   3.0875813e+02   3.1264604e+02   3.1666959e+02   3.2069313e+02   3.2537215e+02   3.3005116e+02   3.3464377e+02   3.3923637e+02   3.4492902e+02   3.5062166e+02   3.5740781e+02   3.6419395e+02   3.6990300e+02   3.7561204e+02   3.8043034e+02   3.8524864e+02
-7.9365079e+01  -8.0332946e+01  -8.1300813e+01  -8.2268680e+01  -8.3236547e+01  -8.4204413e+01  -8.5172280e+01  -8.6140147e+01  -8.8479079e+01  -9.0818011e+01  -9.7540484e+01  -1.0426296e+02  -1.1153811e+02  -1.1881326e+02  -1.2608841e+02  -1.3336357e+02  -1.4063872e+02  -1.4791387e+02  -1.4796512e+02  -1.4801637e+02  -1.4776847e+02  -1.4752057e+02  -1.4727267e+02  -1.4702478e+02  -1.4677688e+02  -1.4652898e+02  -1.4628108e+02  -1.4603318e+02  -1.4578528e+02  -1.4553738e+02  -1.4528949e+02  -1.4504159e+02  -1.4479369e+02  -1.4454579e+02  -1.4452596e+02  -1.4450613e+02  -1.4494244e+02  -1.4537875e+02  -1.4596711e+02  -1.4655546e+02  -1.4714382e+02  -1.4773218e+02  -1.4752442e+02  -1.4731667e+02  -1.4671086e+02  -1.4610505e+02  -1.4625965e+02  -1.4641424e+02  -1.4741837e+02  -1.4842250e+02  -1.4961160e+02  -1.5080071e+02  -1.5077298e+02  -1.5074526e+02  -1.4905149e+02  -1.4735772e+02  -1.4566396e+02  -1.4397019e+02  -1.4227642e+02  -1.4058266e+02  -1.3913890e+02  -1.3769514e+02  -1.3598561e+02  -1.3427608e+02  -1.3233005e+02  -1.3038402e+02  -1.2843799e+02  -1.2649196e+02  -1.2454593e+02  -1.2259990e+02  -1.2065387e+02  -1.1870784e+02  -1.1676181e+02  -1.1481578e+02  -1.1286975e+02  -1.1092372e+02  -1.0904028e+02  -1.0715684e+02  -1.0564895e+02  -1.0414106e+02  -1.0272308e+02  -1.0130509e+02  -9.9433034e+01  -9.7560976e+01  -9.5528455e+01  -9.3495935e+01  -9.0574187e+01  -8.7652439e+01  -8.3841463e+01  -8.0030488e+01  -7.6400987e+01  -7.2771487e+01  -6.9777149e+01  -6.6782811e+01  -6.3879210e+01  -6.0975610e+01  -5.6620209e+01  -5.2264808e+01  -4.7909408e+01  -4.3554007e+01  -3.9198606e+01  -3.4843206e+01  -3.1139229e+01  -2.7435252e+01  -2.4496495e+01  -2.1557738e+01  -1.8872461e+01  -1.6187185e+01  -1.3587072e+01  -1.0986960e+01  -7.9219181e+00  -4.8568765e+00   7.7739860e-01   6.4116738e+00   1.2608359e+01   1.8805044e+01   2.8282429e+01   3.7759815e+01   5.2156427e+01   6.6553039e+01   7.4987056e+01   8.3421073e+01   8.8456529e+01   9.3491985e+01   9.6749282e+01   1.0000658e+02   9.7739551e+01   9.5472522e+01   9.5203859e+01   9.4935195e+01   9.0491025e+01   8.6046855e+01   8.0218427e+01   7.4389999e+01   7.6305501e+01   7.8221004e+01   8.2789440e+01   8.7357875e+01   9.5155683e+01   1.0295349e+02   1.1374475e+02   1.2453600e+02   1.3410810e+02   1.4368021e+02   1.5567310e+02   1.6766600e+02   1.7566549e+02   1.8366499e+02   1.9293101e+02   2.0219704e+02   2.0728089e+02   2.1236475e+02   2.1697054e+02   2.2157633e+02   2.2841098e+02   2.3524562e+02   2.4164657e+02   2.4804752e+02   2.5316724e+02   2.5828696e+02   2.6060677e+02   2.6292659e+02   2.6764964e+02   2.7237270e+02   2.7852212e+02   2.8467154e+02   2.9042219e+02   2.9617284e+02   3.0064179e+02   3.0511075e+02   3.0906143e+02   3.1301211e+02   3.1715825e+02   3.2130438e+02   3.2590416e+02   3.3050394e+02   3.3530128e+02   3.4009862e+02   3.4525021e+02   3.5040179e+02   3.5660474e+02   3.6280769e+02   3.6919900e+02   3.7559032e+02   3.8085462e+02   3.8611893e+02
-8.2752613e+01  -8.3720480e+01  -8.4688347e+01  -8.5656214e+01  -8.6624081e+01  -8.7591947e+01  -8.8559814e+01  -8.9527681e+01  -9.0495548e+01  -9.1463415e+01  -9.8738567e+01  -1.0601372e+02  -1.1328887e+02  -1.2056402e+02  -1.2783918e+02  -1.3511433e+02  -1.4238948e+02  -1.4966463e+02  -1.4941674e+02  -1.4916884e+02  -1.4892094e+02  -1.4867304e+02  -1.4842514e+02  -1.4817724e+02  -1.4792935e+02  -1.4768145e+02  -1.4743355e+02  -1.4718565e+02  -1.4693775e+02  -1.4668985e+02  -1.4644195e+02  -1.4619406e+02  -1.4594616e+02  -1.4569826e+02  -1.4545036e+02  -1.4520246e+02  -1.4548673e+02  -1.4577099e+02  -1.4635935e+02  -1.4694770e+02  -1.4753606e+02  -1.4812441e+02  -1.4871277e+02  -1.4930113e+02  -1.4909337e+02  -1.4888562e+02  -1.4865406e+02  -1.4842250e+02  -1.4942663e+02  -1.5043076e+02  -1.5143489e+02  -1.5243902e+02  -1.5074526e+02  -1.4905149e+02  -1.4735772e+02  -1.4566396e+02  -1.4397019e+02  -1.4227642e+02  -1.4058266e+02  -1.3888889e+02  -1.3740684e+02  -1.3592480e+02  -1.3445176e+02  -1.3297872e+02  -1.3103269e+02  -1.2908666e+02  -1.2714063e+02  -1.2519460e+02  -1.2324857e+02  -1.2130254e+02  -1.1935651e+02  -1.1741048e+02  -1.1546445e+02  -1.1351842e+02  -1.1157239e+02  -1.0962636e+02  -1.0768033e+02  -1.0573430e+02  -1.0378827e+02  -1.0184224e+02  -1.0039694e+02  -9.8951647e+01  -9.7240051e+01  -9.5528455e+01  -9.3495935e+01  -9.1463415e+01  -8.7652439e+01  -8.3841463e+01  -8.0030488e+01  -7.6219512e+01  -7.2408537e+01  -6.8597561e+01  -6.5512485e+01  -6.2427410e+01  -5.9523810e+01  -5.6620209e+01  -5.2264808e+01  -4.7909408e+01  -4.3554007e+01  -3.9198606e+01  -3.4843206e+01  -3.0487805e+01  -2.7435252e+01  -2.4382699e+01  -2.1105297e+01  -1.7827896e+01  -1.5057456e+01  -1.2287016e+01  -9.6869034e+00  -7.0867907e+00  -4.1147349e+00  -1.1426791e+00   3.7901612e+00   8.7230015e+00   1.4780661e+01   2.0838321e+01   3.2033933e+01   4.3229545e+01   5.7025035e+01   7.0820526e+01   8.0338901e+01   8.9857276e+01   9.4863086e+01   9.9868896e+01   1.0450500e+02   1.0914111e+02   1.1042801e+02   1.1171490e+02   1.0932723e+02   1.0693956e+02   1.0498994e+02   1.0304031e+02   9.3046676e+01   8.3053039e+01   8.3298377e+01   8.3543716e+01   8.4833930e+01   8.6124145e+01   9.3995353e+01   1.0186656e+02   1.1312543e+02   1.2438429e+02   1.3364909e+02   1.4291388e+02   1.5554896e+02   1.6818405e+02   1.7492043e+02   1.8165681e+02   1.9283671e+02   2.0401660e+02   2.0908218e+02   2.1414775e+02   2.1942403e+02   2.2470032e+02   2.3108231e+02   2.3746431e+02   2.4387790e+02   2.5029149e+02   2.5673476e+02   2.6317802e+02   2.6443430e+02   2.6569057e+02   2.6971580e+02   2.7374104e+02   2.7931755e+02   2.8489406e+02   2.9062442e+02   2.9635478e+02   3.0085303e+02   3.0535127e+02   3.0936473e+02   3.1337819e+02   3.1764691e+02   3.2191563e+02   3.2643617e+02   3.3095671e+02   3.3595879e+02   3.4096086e+02   3.4557140e+02   3.5018193e+02   3.5580168e+02   3.6142143e+02   3.6849501e+02   3.7556859e+02   3.8127890e+02   3.8698921e+02
